2007.000000 2340.000000 547.000000 0 255 0
1969.000000 2346.000000 547.000000 0 255 0
1965.000000 2359.000000 547.000000 0 255 0
1964.000000 2372.000000 548.000000 0 255 0
2013.000000 2380.000000 537.000000 0 255 0
1982.000000 2346.000000 538.000000 0 255 0
1984.000000 2384.000000 534.000000 0 255 0
1989.000000 2372.000000 534.000000 0 255 0
1981.000000 2358.000000 534.000000 0 255 0
1954.000000 2339.000000 534.000000 0 255 0
1958.000000 2339.000000 570.000000 0 255 0
1956.000000 2351.000000 570.000000 0 255 0
1974.000000 2362.000000 540.000000 0 255 0
2002.000000 2354.000000 541.000000 0 255 0
1995.000000 2339.000000 541.000000 0 255 0
1978.000000 2367.000000 560.000000 0 255 0
1971.000000 2352.000000 560.000000 0 255 0
1986.000000 2358.000000 535.000000 0 255 0
1991.000000 2336.000000 554.000000 0 255 0
1965.000000 2344.000000 554.000000 0 255 0
1979.000000 2361.000000 555.000000 0 255 0
1964.000000 2371.000000 555.000000 0 255 0
1953.000000 2350.000000 570.000000 0 255 0
2023.000000 2384.000000 531.000000 0 255 0
1990.000000 2337.000000 556.000000 0 255 0
1973.000000 2347.000000 556.000000 0 255 0
2000.000000 2366.000000 557.000000 0 255 0
1983.000000 2344.000000 560.000000 0 255 0
1957.000000 2365.000000 561.000000 0 255 0
2012.000000 2350.000000 548.000000 0 255 0
1980.000000 2356.000000 548.000000 0 255 0
1972.000000 2367.000000 548.000000 0 255 0
1961.000000 2335.000000 575.000000 0 255 0
1949.000000 2338.000000 536.000000 0 255 0
2028.000000 2383.000000 536.000000 0 255 0
1964.000000 2382.000000 537.000000 0 255 0
2010.000000 2347.000000 558.000000 0 255 0
1953.000000 2353.000000 560.000000 0 255 0
2003.000000 2350.000000 561.000000 0 255 0
2001.000000 2337.000000 561.000000 0 255 0
2047.000000 2372.000000 536.000000 0 255 0
1975.000000 2343.000000 537.000000 0 255 0
1999.000000 2345.000000 564.000000 0 255 0
2023.000000 2377.000000 565.000000 0 255 0
2004.000000 2340.000000 563.000000 0 255 0
2020.000000 2357.000000 563.000000 0 255 0
1974.000000 2361.000000 563.000000 0 255 0
1673.000000 2358.000000 615.000000 0 255 0
1701.000000 2352.000000 616.000000 0 255 0
1683.000000 2342.000000 622.000000 0 255 0
1735.000000 2366.000000 624.000000 0 255 0
1692.000000 2350.000000 624.000000 0 255 0
1674.000000 2358.000000 624.000000 0 255 0
1664.000000 2351.000000 626.000000 0 255 0
1686.000000 2344.000000 616.000000 0 255 0
1672.000000 2353.000000 616.000000 0 255 0
1709.000000 2358.000000 626.000000 0 255 0
1726.000000 2358.000000 622.000000 0 255 0
1693.000000 2362.000000 621.000000 0 255 0
1664.000000 2354.000000 626.000000 0 255 0
1715.000000 2351.000000 617.000000 0 255 0
1706.000000 2361.000000 618.000000 0 255 0
1707.000000 2358.000000 615.000000 0 255 0
1655.000000 2356.000000 613.000000 0 255 0
1713.000000 2354.000000 614.000000 0 255 0
1686.000000 2360.000000 614.000000 0 255 0
1683.000000 2353.000000 619.000000 0 255 0
1703.000000 2358.000000 616.000000 0 255 0
1694.000000 2344.000000 616.000000 0 255 0
1696.000000 2350.000000 622.000000 0 255 0
1672.000000 2356.000000 621.000000 0 255 0
1706.000000 2350.000000 618.000000 0 255 0
1696.000000 2359.000000 618.000000 0 255 0
1656.000000 2356.000000 608.000000 0 255 0
1661.000000 2346.000000 608.000000 0 255 0
1676.000000 2338.000000 608.000000 0 255 0
1698.000000 2347.000000 619.000000 0 255 0
1692.000000 2357.000000 619.000000 0 255 0
1685.000000 2352.000000 612.000000 0 255 0
1666.000000 2359.000000 611.000000 0 255 0
1691.000000 2348.000000 612.000000 0 255 0
1721.000000 2367.000000 613.000000 0 255 0
1678.000000 2360.000000 606.000000 0 255 0
1680.000000 2341.000000 622.000000 0 255 0
1698.000000 2353.000000 612.000000 0 255 0
1685.000000 2362.000000 611.000000 0 255 0
1671.000000 2360.000000 614.000000 0 255 0
1717.000000 2359.000000 616.000000 0 255 0
1703.000000 2344.000000 616.000000 0 255 0
1703.000000 2359.000000 626.000000 0 255 0
1688.000000 2345.000000 622.000000 0 255 0
1678.000000 2355.000000 622.000000 0 255 0
1726.000000 2356.000000 622.000000 0 255 0
1687.000000 2359.000000 621.000000 0 255 0
1698.000000 2357.000000 625.000000 0 255 0
1677.000000 2356.000000 614.000000 0 255 0
1702.000000 2354.000000 623.000000 0 255 0
1688.000000 2362.000000 623.000000 0 255 0
1680.000000 2362.000000 621.000000 0 255 0
1683.000000 2350.000000 612.000000 0 255 0
1746.000000 2377.000000 614.000000 0 255 0
1689.000000 2347.000000 617.000000 0 255 0
1680.000000 2357.000000 617.000000 0 255 0
1694.000000 2350.000000 615.000000 0 255 0
1665.000000 2355.000000 614.000000 0 255 0
1684.000000 2346.000000 610.000000 0 255 0
1674.000000 2356.000000 611.000000 0 255 0
1654.000000 2357.000000 611.000000 0 255 0
1692.000000 2346.000000 622.000000 0 255 0
1691.000000 2358.000000 622.000000 0 255 0
1671.000000 2348.000000 624.000000 0 255 0
1683.000000 2363.000000 625.000000 0 255 0
1711.000000 2357.000000 624.000000 0 255 0
1689.000000 2363.000000 623.000000 0 255 0
1670.000000 2346.000000 625.000000 0 255 0
1675.000000 2359.000000 625.000000 0 255 0
1710.000000 2353.000000 623.000000 0 255 0
1674.000000 2357.000000 622.000000 0 255 0
1692.000000 2359.000000 613.000000 0 255 0
1688.000000 2346.000000 614.000000 0 255 0
1650.000000 2355.000000 613.000000 0 255 0
1682.000000 2363.000000 621.000000 0 255 0
1680.000000 2358.000000 613.000000 0 255 0
1679.000000 2358.000000 613.000000 0 255 0
1705.000000 2353.000000 614.000000 0 255 0
1697.000000 2364.000000 621.000000 0 255 0
1648.000000 2340.000000 620.000000 0 255 0
1632.000000 2352.000000 607.000000 0 255 0
1678.000000 2358.000000 614.000000 0 255 0
1703.000000 2352.000000 615.000000 0 255 0
1691.000000 2354.000000 623.000000 0 255 0
1696.000000 2352.000000 612.000000 0 255 0
1677.000000 2359.000000 611.000000 0 255 0
1669.000000 2354.000000 608.000000 0 255 0
1691.000000 2348.000000 608.000000 0 255 0
1667.000000 2358.000000 609.000000 0 255 0
1707.000000 2355.000000 619.000000 0 255 0
1684.000000 2361.000000 618.000000 0 255 0
1703.000000 2350.000000 622.000000 0 255 0
1679.000000 2356.000000 621.000000 0 255 0
1698.000000 2352.000000 612.000000 0 255 0
1666.000000 2357.000000 608.000000 0 255 0
1689.000000 2351.000000 609.000000 0 255 0
1705.000000 2346.000000 620.000000 0 255 0
1677.000000 2352.000000 620.000000 0 255 0
4249.000000 2758.000000 580.000000 0 255 0
4257.000000 2761.000000 579.000000 0 255 0
4248.000000 2756.000000 579.000000 0 255 0
4301.000000 2757.000000 588.000000 0 255 0
4250.000000 2759.000000 581.000000 0 255 0
2490.000000 1995.000000 647.000000 0 255 0
2486.000000 1972.000000 641.000000 0 255 0
2458.000000 1995.000000 641.000000 0 255 0
2488.000000 1989.000000 651.000000 0 255 0
2465.000000 1994.000000 644.000000 0 255 0
2469.000000 1985.000000 646.000000 0 255 0
2471.000000 1958.000000 652.000000 0 255 0
2473.000000 1989.000000 652.000000 0 255 0
2467.000000 1981.000000 654.000000 0 255 0
2479.000000 1992.000000 643.000000 0 255 0
2460.000000 1944.000000 642.000000 0 255 0
2017.000000 2334.000000 561.000000 0 255 0
2005.000000 2333.000000 561.000000 0 255 0
2007.000000 2332.000000 566.000000 0 255 0
2040.000000 2351.000000 560.000000 0 255 0
1997.000000 2329.000000 560.000000 0 255 0
2013.000000 2329.000000 558.000000 0 255 0
1999.000000 2335.000000 578.000000 0 255 0
2001.000000 2322.000000 579.000000 0 255 0
2024.000000 2330.000000 577.000000 0 255 0
2017.000000 2342.000000 577.000000 0 255 0
2025.000000 2340.000000 563.000000 0 255 0
2023.000000 2339.000000 567.000000 0 255 0
2055.000000 2348.000000 567.000000 0 255 0
1998.000000 2332.000000 554.000000 0 255 0
2002.000000 2325.000000 565.000000 0 255 0
2012.000000 2331.000000 571.000000 0 255 0
2048.000000 2346.000000 544.000000 0 255 0
2005.000000 2326.000000 574.000000 0 255 0
2005.000000 2339.000000 574.000000 0 255 0
2010.000000 2328.000000 555.000000 0 255 0
2069.000000 2351.000000 548.000000 0 255 0
2003.000000 2337.000000 555.000000 0 255 0
1966.000000 2320.000000 553.000000 0 255 0
2061.000000 2347.000000 550.000000 0 255 0
1989.000000 2323.000000 581.000000 0 255 0
2003.000000 2338.000000 581.000000 0 255 0
2051.000000 2353.000000 540.000000 0 255 0
2011.000000 2336.000000 560.000000 0 255 0
2075.000000 2356.000000 544.000000 0 255 0
1985.000000 2324.000000 544.000000 0 255 0
1990.000000 2329.000000 542.000000 0 255 0
2017.000000 2341.000000 561.000000 0 255 0
2015.000000 2334.000000 576.000000 0 255 0
1997.000000 2318.000000 576.000000 0 255 0
2025.000000 2340.000000 557.000000 0 255 0
2013.000000 2334.000000 545.000000 0 255 0
1993.000000 2323.000000 578.000000 0 255 0
2005.000000 2338.000000 578.000000 0 255 0
2030.000000 2341.000000 563.000000 0 255 0
1992.000000 2324.000000 556.000000 0 255 0
2011.000000 2332.000000 573.000000 0 255 0
2006.000000 2327.000000 573.000000 0 255 0
1976.000000 2325.000000 556.000000 0 255 0
2001.000000 2329.000000 560.000000 0 255 0
2046.000000 2337.000000 562.000000 0 255 0
2004.000000 2337.000000 570.000000 0 255 0
2002.000000 2323.000000 570.000000 0 255 0
2019.000000 2329.000000 561.000000 0 255 0
2038.000000 2344.000000 560.000000 0 255 0
1984.000000 2327.000000 563.000000 0 255 0
1996.000000 2330.000000 547.000000 0 255 0
2003.000000 2328.000000 571.000000 0 255 0
1998.000000 2325.000000 556.000000 0 255 0
2006.000000 2328.000000 579.000000 0 255 0
1991.000000 2326.000000 570.000000 0 255 0
1979.000000 2325.000000 579.000000 0 255 0
1998.000000 2333.000000 554.000000 0 255 0
2034.000000 2343.000000 546.000000 0 255 0
2040.000000 2346.000000 559.000000 0 255 0
1998.000000 2325.000000 559.000000 0 255 0
2061.000000 2346.000000 561.000000 0 255 0
2015.000000 2329.000000 560.000000 0 255 0
2024.000000 2338.000000 566.000000 0 255 0
1977.000000 2319.000000 578.000000 0 255 0
1999.000000 2336.000000 579.000000 0 255 0
2034.000000 2348.000000 538.000000 0 255 0
2024.000000 2341.000000 560.000000 0 255 0
2018.000000 2330.000000 559.000000 0 255 0
1996.000000 2332.000000 542.000000 0 255 0
2011.000000 2330.000000 560.000000 0 255 0
2010.000000 2338.000000 557.000000 0 255 0
1993.000000 2329.000000 556.000000 0 255 0
2005.000000 2330.000000 562.000000 0 255 0
2033.000000 2343.000000 544.000000 0 255 0
2033.000000 2335.000000 547.000000 0 255 0
2010.000000 2329.000000 556.000000 0 255 0
1996.000000 2328.000000 569.000000 0 255 0
2047.000000 2340.000000 575.000000 0 255 0
2007.000000 2346.000000 575.000000 0 255 0
2006.000000 2329.000000 556.000000 0 255 0
1982.000000 2321.000000 578.000000 0 255 0
2008.000000 2339.000000 579.000000 0 255 0
2050.000000 2356.000000 564.000000 0 255 0
2018.000000 2336.000000 564.000000 0 255 0
2002.000000 2333.000000 549.000000 0 255 0
2069.000000 2348.000000 556.000000 0 255 0
2009.000000 2328.000000 577.000000 0 255 0
2015.000000 2333.000000 576.000000 0 255 0
2016.000000 2340.000000 547.000000 0 255 0
2013.000000 2330.000000 560.000000 0 255 0
2034.000000 2346.000000 551.000000 0 255 0
2041.000000 2341.000000 569.000000 0 255 0
1965.000000 2319.000000 564.000000 0 255 0
1998.000000 2329.000000 568.000000 0 255 0
2018.000000 2329.000000 572.000000 0 255 0
2067.000000 2363.000000 560.000000 0 255 0
1998.000000 2330.000000 541.000000 0 255 0
2014.000000 2339.000000 581.000000 0 255 0
2013.000000 2331.000000 576.000000 0 255 0
2004.000000 2328.000000 560.000000 0 255 0
2002.000000 2332.000000 552.000000 0 255 0
2003.000000 2326.000000 560.000000 0 255 0
1993.000000 2330.000000 564.000000 0 255 0
2053.000000 2354.000000 524.000000 0 255 0
2015.000000 2340.000000 561.000000 0 255 0
1985.000000 2322.000000 574.000000 0 255 0
2015.000000 2341.000000 575.000000 0 255 0
2014.000000 2338.000000 567.000000 0 255 0
2015.000000 2340.000000 541.000000 0 255 0
1994.000000 2328.000000 552.000000 0 255 0
1998.000000 2331.000000 558.000000 0 255 0
1983.000000 2322.000000 579.000000 0 255 0
1985.000000 2335.000000 579.000000 0 255 0
2012.000000 2328.000000 576.000000 0 255 0
1997.000000 2326.000000 577.000000 0 255 0
2000.000000 2340.000000 578.000000 0 255 0
1978.000000 2328.000000 584.000000 0 255 0
2056.000000 2357.000000 561.000000 0 255 0
2008.000000 2334.000000 560.000000 0 255 0
1999.000000 2344.000000 575.000000 0 255 0
1997.000000 2331.000000 558.000000 0 255 0
2006.000000 2326.000000 578.000000 0 255 0
1689.000000 2374.000000 616.000000 0 255 0
1697.000000 2378.000000 555.000000 0 255 0
1673.000000 2368.000000 656.000000 0 255 0
1660.000000 2378.000000 656.000000 0 255 0
1685.000000 2377.000000 668.000000 0 255 0
1691.000000 2382.000000 632.000000 0 255 0
1686.000000 2383.000000 594.000000 0 255 0
1679.000000 2369.000000 635.000000 0 255 0
1682.000000 2371.000000 598.000000 0 255 0
1735.000000 2395.000000 638.000000 0 255 0
1757.000000 2402.000000 600.000000 0 255 0
1678.000000 2364.000000 622.000000 0 255 0
1698.000000 2377.000000 659.000000 0 255 0
1714.000000 2384.000000 623.000000 0 255 0
1729.000000 2388.000000 585.000000 0 255 0
1679.000000 2379.000000 547.000000 0 255 0
1692.000000 2390.000000 584.000000 0 255 0
1722.000000 2387.000000 639.000000 0 255 0
1734.000000 2391.000000 601.000000 0 255 0
1750.000000 2398.000000 564.000000 0 255 0
1690.000000 2383.000000 547.000000 0 255 0
1733.000000 2395.000000 556.000000 0 255 0
1699.000000 2382.000000 631.000000 0 255 0
1665.000000 2367.000000 556.000000 0 255 0
1701.000000 2371.000000 631.000000 0 255 0
1662.000000 2376.000000 591.000000 0 255 0
1652.000000 2372.000000 554.000000 0 255 0
1645.000000 2365.000000 628.000000 0 255 0
1644.000000 2360.000000 590.000000 0 255 0
1723.000000 2388.000000 571.000000 0 255 0
1686.000000 2371.000000 586.000000 0 255 0
1675.000000 2363.000000 610.000000 0 255 0
1689.000000 2375.000000 649.000000 0 255 0
1678.000000 2375.000000 610.000000 0 255 0
1727.000000 2389.000000 574.000000 0 255 0
1668.000000 2381.000000 648.000000 0 255 0
1724.000000 2392.000000 538.000000 0 255 0
1675.000000 2375.000000 588.000000 0 255 0
1680.000000 2382.000000 663.000000 0 255 0
1691.000000 2373.000000 636.000000 0 255 0
1653.000000 2366.000000 598.000000 0 255 0
1663.000000 2381.000000 598.000000 0 255 0
1729.000000 2392.000000 639.000000 0 255 0
1751.000000 2402.000000 565.000000 0 255 0
1694.000000 2384.000000 575.000000 0 255 0
1656.000000 2364.000000 636.000000 0 255 0
1658.000000 2368.000000 600.000000 0 255 0
1651.000000 2377.000000 600.000000 0 255 0
1643.000000 2363.000000 597.000000 0 255 0
1719.000000 2391.000000 638.000000 0 255 0
1738.000000 2392.000000 526.000000 0 255 0
1666.000000 2380.000000 598.000000 0 255 0
1661.000000 2381.000000 561.000000 0 255 0
1684.000000 2367.000000 664.000000 0 255 0
1700.000000 2372.000000 627.000000 0 255 0
1708.000000 2384.000000 665.000000 0 255 0
1702.000000 2387.000000 553.000000 0 255 0
1713.000000 2388.000000 590.000000 0 255 0
1693.000000 2385.000000 554.000000 0 255 0
1734.000000 2388.000000 593.000000 0 255 0
1690.000000 2373.000000 554.000000 0 255 0
1700.000000 2380.000000 561.000000 0 255 0
1672.000000 2378.000000 651.000000 0 255 0
1680.000000 2372.000000 669.000000 0 255 0
1722.000000 2386.000000 635.000000 0 255 0
1688.000000 2380.000000 595.000000 0 255 0
1656.000000 2377.000000 558.000000 0 255 0
1671.000000 2377.000000 599.000000 0 255 0
1677.000000 2367.000000 599.000000 0 255 0
1685.000000 2365.000000 654.000000 0 255 0
1673.000000 2374.000000 654.000000 0 255 0
1716.000000 2388.000000 618.000000 0 255 0
1751.000000 2398.000000 581.000000 0 255 0
1704.000000 2391.000000 544.000000 0 255 0
1696.000000 2380.000000 556.000000 0 255 0
1689.000000 2365.000000 625.000000 0 255 0
1736.000000 2388.000000 627.000000 0 255 0
1671.000000 2381.000000 661.000000 0 255 0
1708.000000 2386.000000 551.000000 0 255 0
1694.000000 2390.000000 587.000000 0 255 0
1689.000000 2382.000000 566.000000 0 255 0
1708.000000 2381.000000 643.000000 0 255 0
1728.000000 2386.000000 605.000000 0 255 0
1720.000000 2388.000000 568.000000 0 255 0
1668.000000 2382.000000 641.000000 0 255 0
1677.000000 2385.000000 604.000000 0 255 0
1708.000000 2385.000000 572.000000 0 255 0
1682.000000 2384.000000 558.000000 0 255 0
1668.000000 2369.000000 559.000000 0 255 0
1662.000000 2361.000000 609.000000 0 255 0
1671.000000 2372.000000 647.000000 0 255 0
1678.000000 2377.000000 610.000000 0 255 0
1750.000000 2397.000000 574.000000 0 255 0
1712.000000 2391.000000 538.000000 0 255 0
1714.000000 2384.000000 553.000000 0 255 0
1685.000000 2371.000000 621.000000 0 255 0
1697.000000 2377.000000 585.000000 0 255 0
1737.000000 2400.000000 547.000000 0 255 0
1691.000000 2373.000000 627.000000 0 255 0
1692.000000 2382.000000 666.000000 0 255 0
1632.000000 2372.000000 589.000000 0 255 0
1676.000000 2387.000000 554.000000 0 255 0
1717.000000 2387.000000 590.000000 0 255 0
1658.000000 2365.000000 626.000000 0 255 0
1716.000000 2385.000000 552.000000 0 255 0
1681.000000 2365.000000 655.000000 0 255 0
1690.000000 2380.000000 656.000000 0 255 0
1724.000000 2390.000000 619.000000 0 255 0
1714.000000 2391.000000 582.000000 0 255 0
1696.000000 2389.000000 544.000000 0 255 0
1718.000000 2385.000000 587.000000 0 255 0
1734.000000 2385.000000 653.000000 0 255 0
1671.000000 2372.000000 614.000000 0 255 0
1648.000000 2367.000000 576.000000 0 255 0
1668.000000 2380.000000 650.000000 0 255 0
1742.000000 2394.000000 540.000000 0 255 0
1667.000000 2383.000000 576.000000 0 255 0
1743.000000 2398.000000 568.000000 0 255 0
1689.000000 2373.000000 567.000000 0 255 0
1675.000000 2370.000000 614.000000 0 255 0
1677.000000 2378.000000 651.000000 0 255 0
1694.000000 2379.000000 659.000000 0 255 0
1700.000000 2382.000000 621.000000 0 255 0
1658.000000 2376.000000 583.000000 0 255 0
1644.000000 2361.000000 633.000000 0 255 0
1675.000000 2384.000000 597.000000 0 255 0
1692.000000 2390.000000 560.000000 0 255 0
1690.000000 2365.000000 664.000000 0 255 0
1684.000000 2367.000000 627.000000 0 255 0
1732.000000 2391.000000 629.000000 0 255 0
1683.000000 2381.000000 590.000000 0 255 0
1728.000000 2397.000000 553.000000 0 255 0
1698.000000 2367.000000 666.000000 0 255 0
1736.000000 2394.000000 592.000000 0 255 0
1703.000000 2390.000000 555.000000 0 255 0
1675.000000 2374.000000 639.000000 0 255 0
1659.000000 2374.000000 602.000000 0 255 0
1748.000000 2398.000000 540.000000 0 255 0
1671.000000 2369.000000 577.000000 0 255 0
1665.000000 2361.000000 615.000000 0 255 0
1655.000000 2363.000000 644.000000 0 255 0
1669.000000 2370.000000 609.000000 0 255 0
1711.000000 2389.000000 648.000000 0 255 0
1663.000000 2368.000000 597.000000 0 255 0
1655.000000 2367.000000 561.000000 0 255 0
1729.000000 2393.000000 638.000000 0 255 0
1670.000000 2376.000000 636.000000 0 255 0
1687.000000 2371.000000 622.000000 0 255 0
1652.000000 2373.000000 621.000000 0 255 0
1714.000000 2393.000000 548.000000 0 255 0
1672.000000 2362.000000 655.000000 0 255 0
1676.000000 2375.000000 656.000000 0 255 0
1705.000000 2379.000000 545.000000 0 255 0
1728.000000 2392.000000 620.000000 0 255 0
1740.000000 2396.000000 582.000000 0 255 0
1734.000000 2399.000000 545.000000 0 255 0
1715.000000 2384.000000 598.000000 0 255 0
1722.000000 2387.000000 560.000000 0 255 0
1675.000000 2383.000000 635.000000 0 255 0
1704.000000 2387.000000 571.000000 0 255 0
1664.000000 2370.000000 608.000000 0 255 0
1638.000000 2370.000000 627.000000 0 255 0
1735.000000 2395.000000 548.000000 0 255 0
1709.000000 2381.000000 586.000000 0 255 0
1681.000000 2373.000000 642.000000 0 255 0
1680.000000 2375.000000 604.000000 0 255 0
1728.000000 2391.000000 569.000000 0 255 0
1673.000000 2361.000000 656.000000 0 255 0
1669.000000 2363.000000 618.000000 0 255 0
1683.000000 2375.000000 657.000000 0 255 0
1751.000000 2395.000000 621.000000 0 255 0
1723.000000 2393.000000 546.000000 0 255 0
1663.000000 2367.000000 647.000000 0 255 0
1689.000000 2376.000000 612.000000 0 255 0
1666.000000 2381.000000 611.000000 0 255 0
1714.000000 2392.000000 560.000000 0 255 0
1705.000000 2378.000000 560.000000 0 255 0
1697.000000 2370.000000 649.000000 0 255 0
1652.000000 2362.000000 611.000000 0 255 0
1672.000000 2375.000000 648.000000 0 255 0
1668.000000 2378.000000 611.000000 0 255 0
1716.000000 2380.000000 648.000000 0 255 0
1675.000000 2373.000000 608.000000 0 255 0
1743.000000 2392.000000 572.000000 0 255 0
1677.000000 2382.000000 646.000000 0 255 0
1722.000000 2391.000000 536.000000 0 255 0
1739.000000 2396.000000 551.000000 0 255 0
1720.000000 2384.000000 589.000000 0 255 0
1679.000000 2380.000000 630.000000 0 255 0
1737.000000 2387.000000 555.000000 0 255 0
1654.000000 2362.000000 629.000000 0 255 0
1697.000000 2366.000000 671.000000 0 255 0
1703.000000 2387.000000 635.000000 0 255 0
1699.000000 2384.000000 568.000000 0 255 0
1668.000000 2369.000000 605.000000 0 255 0
1663.000000 2368.000000 642.000000 0 255 0
1751.000000 2391.000000 608.000000 0 255 0
1746.000000 2393.000000 571.000000 0 255 0
1684.000000 2364.000000 666.000000 0 255 0
1694.000000 2378.000000 667.000000 0 255 0
1760.000000 2399.000000 594.000000 0 255 0
1711.000000 2394.000000 668.000000 0 255 0
1702.000000 2385.000000 555.000000 0 255 0
1702.000000 2387.000000 556.000000 0 255 0
1697.000000 2381.000000 631.000000 0 255 0
1704.000000 2367.000000 662.000000 0 255 0
1679.000000 2364.000000 622.000000 0 255 0
1703.000000 2379.000000 662.000000 0 255 0
1658.000000 2370.000000 622.000000 0 255 0
1747.000000 2394.000000 587.000000 0 255 0
1682.000000 2385.000000 661.000000 0 255 0
1722.000000 2391.000000 550.000000 0 255 0
1716.000000 2384.000000 637.000000 0 255 0
1732.000000 2392.000000 599.000000 0 255 0
1761.000000 2401.000000 562.000000 0 255 0
1729.000000 2396.000000 526.000000 0 255 0
1664.000000 2377.000000 588.000000 0 255 0
1651.000000 2362.000000 588.000000 0 255 0
1697.000000 2377.000000 612.000000 0 255 0
1719.000000 2391.000000 650.000000 0 255 0
1660.000000 2380.000000 611.000000 0 255 0
1649.000000 2367.000000 613.000000 0 255 0
1677.000000 2369.000000 577.000000 0 255 0
1717.000000 2370.000000 669.000000 0 255 0
1698.000000 2387.000000 601.000000 0 255 0
1687.000000 2372.000000 601.000000 0 255 0
1650.000000 2378.000000 557.000000 0 255 0
1725.000000 2385.000000 558.000000 0 255 0
1676.000000 2380.000000 616.000000 0 255 0
1663.000000 2365.000000 616.000000 0 255 0
1685.000000 2363.000000 663.000000 0 255 0
1691.000000 2369.000000 626.000000 0 255 0
1749.000000 2395.000000 628.000000 0 255 0
1735.000000 2393.000000 590.000000 0 255 0
1696.000000 2388.000000 553.000000 0 255 0
1702.000000 2372.000000 671.000000 0 255 0
1659.000000 2369.000000 558.000000 0 255 0
1706.000000 2382.000000 636.000000 0 255 0
1706.000000 2382.000000 598.000000 0 255 0
1671.000000 2377.000000 560.000000 0 255 0
1673.000000 2366.000000 622.000000 0 255 0
1695.000000 2377.000000 549.000000 0 255 0
1748.000000 2397.000000 625.000000 0 255 0
1721.000000 2392.000000 587.000000 0 255 0
1693.000000 2381.000000 658.000000 0 255 0
1698.000000 2386.000000 621.000000 0 255 0
1666.000000 2363.000000 605.000000 0 255 0
1676.000000 2374.000000 644.000000 0 255 0
1696.000000 2382.000000 606.000000 0 255 0
1727.000000 2395.000000 534.000000 0 255 0
1755.000000 2395.000000 595.000000 0 255 0
1656.000000 2368.000000 556.000000 0 255 0
1656.000000 2364.000000 630.000000 0 255 0
1665.000000 2366.000000 589.000000 0 255 0
1694.000000 2374.000000 571.000000 0 255 0
1687.000000 2383.000000 549.000000 0 255 0
1691.000000 2367.000000 669.000000 0 255 0
1707.000000 2383.000000 670.000000 0 255 0
1751.000000 2401.000000 558.000000 0 255 0
1745.000000 2390.000000 632.000000 0 255 0
1725.000000 2386.000000 593.000000 0 255 0
1711.000000 2391.000000 669.000000 0 255 0
1717.000000 2388.000000 557.000000 0 255 0
1667.000000 2384.000000 592.000000 0 255 0
1690.000000 2367.000000 663.000000 0 255 0
1734.000000 2389.000000 627.000000 0 255 0
1678.000000 2379.000000 588.000000 0 255 0
1676.000000 2377.000000 638.000000 0 255 0
1677.000000 2379.000000 600.000000 0 255 0
1725.000000 2396.000000 564.000000 0 255 0
1729.000000 2383.000000 610.000000 0 255 0
1702.000000 2378.000000 571.000000 0 255 0
1679.000000 2379.000000 645.000000 0 255 0
1729.000000 2390.000000 535.000000 0 255 0
1650.000000 2375.000000 608.000000 0 255 0
1719.000000 2379.000000 616.000000 0 255 0
1640.000000 2364.000000 578.000000 0 255 0
1704.000000 2386.000000 655.000000 0 255 0
1672.000000 2368.000000 628.000000 0 255 0
1661.000000 2367.000000 591.000000 0 255 0
1688.000000 2381.000000 667.000000 0 255 0
1731.000000 2389.000000 556.000000 0 255 0
1670.000000 2380.000000 628.000000 0 255 0
1724.000000 2394.000000 542.000000 0 255 0
1733.000000 2389.000000 580.000000 0 255 0
1721.000000 2379.000000 662.000000 0 255 0
1728.000000 2385.000000 625.000000 0 255 0
1717.000000 2384.000000 587.000000 0 255 0
1673.000000 2368.000000 583.000000 0 255 0
1689.000000 2383.000000 570.000000 0 255 0
1739.000000 2395.000000 593.000000 0 255 0
1679.000000 2368.000000 592.000000 0 255 0
1653.000000 2366.000000 597.000000 0 255 0
1722.000000 2387.000000 562.000000 0 255 0
1702.000000 2389.000000 636.000000 0 255 0
1663.000000 2377.000000 592.000000 0 255 0
1643.000000 2370.000000 555.000000 0 255 0
1651.000000 2367.000000 629.000000 0 255 0
1656.000000 2363.000000 592.000000 0 255 0
1701.000000 2381.000000 559.000000 0 255 0
1706.000000 2379.000000 613.000000 0 255 0
1662.000000 2369.000000 574.000000 0 255 0
1708.000000 2384.000000 539.000000 0 255 0
1655.000000 2365.000000 632.000000 0 255 0
1717.000000 2384.000000 597.000000 0 255 0
1723.000000 2387.000000 559.000000 0 255 0
1717.000000 2393.000000 635.000000 0 255 0
1713.000000 2384.000000 556.000000 0 255 0
1691.000000 2381.000000 656.000000 0 255 0
1750.000000 2401.000000 582.000000 0 255 0
1678.000000 2387.000000 545.000000 0 255 0
1640.000000 2373.000000 563.000000 0 255 0
1749.000000 2399.000000 527.000000 0 255 0
1663.000000 2372.000000 601.000000 0 255 0
1661.000000 2367.000000 564.000000 0 255 0
1671.000000 2363.000000 601.000000 0 255 0
1685.000000 2383.000000 593.000000 0 255 0
1739.000000 2395.000000 556.000000 0 255 0
1731.000000 2388.000000 633.000000 0 255 0
1699.000000 2380.000000 639.000000 0 255 0
1712.000000 2385.000000 601.000000 0 255 0
1710.000000 2389.000000 565.000000 0 255 0
1668.000000 2377.000000 636.000000 0 255 0
1758.000000 2396.000000 592.000000 0 255 0
1646.000000 2366.000000 553.000000 0 255 0
1642.000000 2360.000000 627.000000 0 255 0
1713.000000 2375.000000 627.000000 0 255 0
1691.000000 2380.000000 637.000000 0 255 0
1722.000000 2392.000000 600.000000 0 255 0
1733.000000 2396.000000 562.000000 0 255 0
1683.000000 2365.000000 607.000000 0 255 0
1676.000000 2370.000000 644.000000 0 255 0
1647.000000 2369.000000 606.000000 0 255 0
1706.000000 2384.000000 545.000000 0 255 0
1738.000000 2396.000000 550.000000 0 255 0
1720.000000 2384.000000 589.000000 0 255 0
1732.000000 2384.000000 608.000000 0 255 0
1641.000000 2363.000000 569.000000 0 255 0
1685.000000 2381.000000 644.000000 0 255 0
1696.000000 2370.000000 668.000000 0 255 0
1695.000000 2373.000000 630.000000 0 255 0
1689.000000 2381.000000 668.000000 0 255 0
1647.000000 2375.000000 592.000000 0 255 0
1696.000000 2391.000000 556.000000 0 255 0
1676.000000 2366.000000 652.000000 0 255 0
1694.000000 2382.000000 653.000000 0 255 0
1700.000000 2379.000000 542.000000 0 255 0
1750.000000 2404.000000 542.000000 0 255 0
1691.000000 2373.000000 612.000000 0 255 0
1710.000000 2388.000000 651.000000 0 255 0
1678.000000 2382.000000 612.000000 0 255 0
1713.000000 2390.000000 551.000000 0 255 0
1746.000000 2393.000000 629.000000 0 255 0
1655.000000 2366.000000 588.000000 0 255 0
1698.000000 2376.000000 651.000000 0 255 0
1670.000000 2372.000000 612.000000 0 255 0
1728.000000 2388.000000 576.000000 0 255 0
1714.000000 2388.000000 540.000000 0 255 0
1694.000000 2378.000000 558.000000 0 255 0
1728.000000 2390.000000 573.000000 0 255 0
1672.000000 2364.000000 642.000000 0 255 0
1755.000000 2390.000000 608.000000 0 255 0
1672.000000 2377.000000 642.000000 0 255 0
1684.000000 2365.000000 660.000000 0 255 0
1673.000000 2365.000000 622.000000 0 255 0
1699.000000 2380.000000 661.000000 0 255 0
1733.000000 2397.000000 549.000000 0 255 0
1676.000000 2364.000000 670.000000 0 255 0
1711.000000 2387.000000 597.000000 0 255 0
1675.000000 2382.000000 560.000000 0 255 0
1656.000000 2375.000000 588.000000 0 255 0
1688.000000 2370.000000 589.000000 0 255 0
1761.000000 2402.000000 570.000000 0 255 0
1686.000000 2371.000000 569.000000 0 255 0
1734.000000 2386.000000 568.000000 0 255 0
1688.000000 2381.000000 543.000000 0 255 0
1745.000000 2393.000000 593.000000 0 255 0
1671.000000 2368.000000 629.000000 0 255 0
1688.000000 2384.000000 593.000000 0 255 0
1648.000000 2367.000000 629.000000 0 255 0
1698.000000 2378.000000 641.000000 0 255 0
1653.000000 2371.000000 603.000000 0 255 0
1655.000000 2379.000000 639.000000 0 255 0
1696.000000 2387.000000 663.000000 0 255 0
1716.000000 2379.000000 663.000000 0 255 0
1719.000000 2387.000000 550.000000 0 255 0
1693.000000 2388.000000 624.000000 0 255 0
1638.000000 2360.000000 634.000000 0 255 0
1658.000000 2367.000000 598.000000 0 255 0
1674.000000 2376.000000 562.000000 0 255 0
1675.000000 2382.000000 637.000000 0 255 0
1648.000000 2377.000000 598.000000 0 255 0
1687.000000 2373.000000 606.000000 0 255 0
1674.000000 2375.000000 569.000000 0 255 0
1646.000000 2374.000000 643.000000 0 255 0
1690.000000 2379.000000 639.000000 0 255 0
1694.000000 2382.000000 601.000000 0 255 0
1697.000000 2386.000000 565.000000 0 255 0
1750.000000 2401.000000 589.000000 0 255 0
1649.000000 2379.000000 551.000000 0 255 0
1648.000000 2376.000000 561.000000 0 255 0
1703.000000 2382.000000 600.000000 0 255 0
1688.000000 2366.000000 600.000000 0 255 0
1718.000000 2391.000000 564.000000 0 255 0
1749.000000 2394.000000 527.000000 0 255 0
1658.000000 2367.000000 585.000000 0 255 0
1682.000000 2378.000000 549.000000 0 255 0
1684.000000 2384.000000 624.000000 0 255 0
1705.000000 2384.000000 593.000000 0 255 0
1652.000000 2364.000000 629.000000 0 255 0
1668.000000 2376.000000 612.000000 0 255 0
1669.000000 2371.000000 614.000000 0 255 0
1660.000000 2370.000000 576.000000 0 255 0
1704.000000 2384.000000 541.000000 0 255 0
1694.000000 2389.000000 615.000000 0 255 0
1664.000000 2382.000000 577.000000 0 255 0
1671.000000 2367.000000 583.000000 0 255 0
1683.000000 2372.000000 568.000000 0 255 0
1660.000000 2366.000000 640.000000 0 255 0
1656.000000 2366.000000 603.000000 0 255 0
1655.000000 2369.000000 568.000000 0 255 0
1682.000000 2382.000000 592.000000 0 255 0
1751.000000 2393.000000 633.000000 0 255 0
1653.000000 2363.000000 592.000000 0 255 0
1732.000000 2386.000000 636.000000 0 255 0
1730.000000 2388.000000 597.000000 0 255 0
1734.000000 2391.000000 560.000000 0 255 0
1758.000000 2393.000000 590.000000 0 255 0
1677.000000 2370.000000 614.000000 0 255 0
1672.000000 2377.000000 651.000000 0 255 0
1645.000000 2371.000000 592.000000 0 255 0
1685.000000 2370.000000 593.000000 0 255 0
1673.000000 2366.000000 637.000000 0 255 0
1718.000000 2390.000000 640.000000 0 255 0
1741.000000 2397.000000 603.000000 0 255 0
1688.000000 2388.000000 565.000000 0 255 0
1697.000000 2370.000000 671.000000 0 255 0
1632.000000 2361.000000 595.000000 0 255 0
1694.000000 2383.000000 634.000000 0 255 0
1685.000000 2382.000000 613.000000 0 255 0
1677.000000 2376.000000 576.000000 0 255 0
1685.000000 2371.000000 613.000000 0 255 0
1675.000000 2372.000000 644.000000 0 255 0
1739.000000 2389.000000 601.000000 0 255 0
1654.000000 2369.000000 561.000000 0 255 0
1714.000000 2395.000000 600.000000 0 255 0
1671.000000 2385.000000 561.000000 0 255 0
1724.000000 2386.000000 598.000000 0 255 0
1736.000000 2391.000000 561.000000 0 255 0
1721.000000 2388.000000 584.000000 0 255 0
1661.000000 2366.000000 620.000000 0 255 0
1698.000000 2377.000000 647.000000 0 255 0
1669.000000 2373.000000 608.000000 0 255 0
1735.000000 2391.000000 572.000000 0 255 0
1687.000000 2386.000000 647.000000 0 255 0
1723.000000 2391.000000 536.000000 0 255 0
1663.000000 2380.000000 562.000000 0 255 0
1659.000000 2372.000000 600.000000 0 255 0
1674.000000 2364.000000 600.000000 0 255 0
1669.000000 2374.000000 577.000000 0 255 0
1696.000000 2374.000000 615.000000 0 255 0
1657.000000 2368.000000 636.000000 0 255 0
1697.000000 2389.000000 547.000000 0 255 0
1741.000000 2392.000000 586.000000 0 255 0
1647.000000 2374.000000 554.000000 0 255 0
1713.000000 2386.000000 630.000000 0 255 0
1670.000000 2371.000000 591.000000 0 255 0
1667.000000 2368.000000 554.000000 0 255 0
1700.000000 2371.000000 630.000000 0 255 0
1711.000000 2381.000000 601.000000 0 255 0
1716.000000 2384.000000 563.000000 0 255 0
1651.000000 2375.000000 636.000000 0 255 0
1708.000000 2371.000000 649.000000 0 255 0
1648.000000 2369.000000 647.000000 0 255 0
1684.000000 2364.000000 624.000000 0 255 0
1711.000000 2379.000000 662.000000 0 255 0
1697.000000 2381.000000 587.000000 0 255 0
1664.000000 2380.000000 660.000000 0 255 0
1725.000000 2383.000000 613.000000 0 255 0
1701.000000 2380.000000 575.000000 0 255 0
1666.000000 2379.000000 649.000000 0 255 0
1656.000000 2377.000000 611.000000 0 255 0
1658.000000 2381.000000 575.000000 0 255 0
1697.000000 2373.000000 609.000000 0 255 0
1702.000000 2378.000000 649.000000 0 255 0
1683.000000 2374.000000 610.000000 0 255 0
1666.000000 2381.000000 609.000000 0 255 0
1654.000000 2369.000000 642.000000 0 255 0
1710.000000 2375.000000 604.000000 0 255 0
1702.000000 2385.000000 642.000000 0 255 0
1686.000000 2381.000000 603.000000 0 255 0
1679.000000 2383.000000 567.000000 0 255 0
1734.000000 2396.000000 538.000000 0 255 0
1730.000000 2387.000000 576.000000 0 255 0
1658.000000 2362.000000 630.000000 0 255 0
1685.000000 2367.000000 647.000000 0 255 0
1652.000000 2362.000000 608.000000 0 255 0
1684.000000 2379.000000 647.000000 0 255 0
1731.000000 2394.000000 610.000000 0 255 0
1711.000000 2367.000000 668.000000 0 255 0
1658.000000 2369.000000 628.000000 0 255 0
1755.000000 2395.000000 593.000000 0 255 0
1712.000000 2388.000000 556.000000 0 255 0
1665.000000 2370.000000 607.000000 0 255 0
1706.000000 2382.000000 570.000000 0 255 0
1708.000000 2366.000000 669.000000 0 255 0
1708.000000 2379.000000 670.000000 0 255 0
1659.000000 2370.000000 630.000000 0 255 0
1746.000000 2393.000000 595.000000 0 255 0
1711.000000 2389.000000 558.000000 0 255 0
1655.000000 2369.000000 560.000000 0 255 0
1706.000000 2378.000000 658.000000 0 255 0
1668.000000 2369.000000 618.000000 0 255 0
1639.000000 2365.000000 581.000000 0 255 0
1660.000000 2381.000000 581.000000 0 255 0
1696.000000 2371.000000 659.000000 0 255 0
1675.000000 2366.000000 621.000000 0 255 0
1649.000000 2371.000000 620.000000 0 255 0
1702.000000 2389.000000 547.000000 0 255 0
1662.000000 2368.000000 612.000000 0 255 0
1724.000000 2391.000000 652.000000 0 255 0
1722.000000 2389.000000 631.000000 0 255 0
1663.000000 2369.000000 591.000000 0 255 0
1642.000000 2362.000000 554.000000 0 255 0
1679.000000 2366.000000 629.000000 0 255 0
1638.000000 2363.000000 557.000000 0 255 0
1673.000000 2371.000000 608.000000 0 255 0
1663.000000 2356.000000 656.000000 0 255 0
1654.000000 2359.000000 620.000000 0 255 0
1679.000000 2373.000000 658.000000 0 255 0
1664.000000 2375.000000 621.000000 0 255 0
1643.000000 2362.000000 599.000000 0 255 0
1668.000000 2370.000000 563.000000 0 255 0
1727.000000 2392.000000 640.000000 0 255 0
1653.000000 2376.000000 600.000000 0 255 0
1685.000000 2379.000000 639.000000 0 255 0
1689.000000 2382.000000 601.000000 0 255 0
1706.000000 2390.000000 565.000000 0 255 0
1697.000000 2379.000000 638.000000 0 255 0
1712.000000 2386.000000 600.000000 0 255 0
1750.000000 2397.000000 563.000000 0 255 0
2474.000000 1945.000000 602.000000 0 255 0
2481.000000 1958.000000 601.000000 0 255 0
2482.000000 1949.000000 616.000000 0 255 0
2481.000000 1964.000000 616.000000 0 255 0
2483.000000 1980.000000 616.000000 0 255 0
2487.000000 1996.000000 616.000000 0 255 0
2479.000000 1974.000000 619.000000 0 255 0
2474.000000 1959.000000 619.000000 0 255 0
2491.000000 1945.000000 619.000000 0 255 0
2479.000000 1940.000000 597.000000 0 255 0
2481.000000 1982.000000 611.000000 0 255 0
2480.000000 1967.000000 611.000000 0 255 0
2483.000000 1981.000000 611.000000 0 255 0
2498.000000 1937.000000 612.000000 0 255 0
2477.000000 1959.000000 628.000000 0 255 0
2480.000000 1975.000000 629.000000 0 255 0
2483.000000 1990.000000 629.000000 0 255 0
2473.000000 1935.000000 633.000000 0 255 0
2475.000000 1950.000000 633.000000 0 255 0
2484.000000 1966.000000 633.000000 0 255 0
2488.000000 1982.000000 634.000000 0 255 0
2494.000000 1940.000000 617.000000 0 255 0
2487.000000 1986.000000 617.000000 0 255 0
2477.000000 1947.000000 619.000000 0 255 0
2481.000000 1962.000000 619.000000 0 255 0
2486.000000 1977.000000 619.000000 0 255 0
2475.000000 1992.000000 619.000000 0 255 0
2482.000000 1958.000000 605.000000 0 255 0
2488.000000 1980.000000 616.000000 0 255 0
2477.000000 1964.000000 616.000000 0 255 0
2496.000000 1935.000000 616.000000 0 255 0
2485.000000 1974.000000 622.000000 0 255 0
2480.000000 1959.000000 622.000000 0 255 0
2488.000000 1945.000000 622.000000 0 255 0
2488.000000 1938.000000 628.000000 0 255 0
2473.000000 1952.000000 627.000000 0 255 0
2474.000000 1968.000000 628.000000 0 255 0
2477.000000 1983.000000 628.000000 0 255 0
2485.000000 1949.000000 624.000000 0 255 0
2485.000000 1964.000000 624.000000 0 255 0
2485.000000 1980.000000 624.000000 0 255 0
2491.000000 1995.000000 624.000000 0 255 0
2455.000000 1943.000000 583.000000 0 255 0
2495.000000 1935.000000 601.000000 0 255 0
2426.000000 1936.000000 557.000000 0 255 0
2491.000000 1938.000000 619.000000 0 255 0
2479.000000 1953.000000 619.000000 0 255 0
2479.000000 1968.000000 619.000000 0 255 0
2478.000000 1983.000000 620.000000 0 255 0
2479.000000 1952.000000 612.000000 0 255 0
2424.000000 1945.000000 563.000000 0 255 0
2492.000000 1935.000000 626.000000 0 255 0
2482.000000 1950.000000 626.000000 0 255 0
2475.000000 1965.000000 626.000000 0 255 0
2481.000000 1981.000000 627.000000 0 255 0
2483.000000 1941.000000 604.000000 0 255 0
2478.000000 1963.000000 636.000000 0 255 0
2483.000000 1978.000000 636.000000 0 255 0
2469.000000 1953.000000 619.000000 0 255 0
2469.000000 1969.000000 619.000000 0 255 0
2472.000000 1985.000000 619.000000 0 255 0
2473.000000 2001.000000 620.000000 0 255 0
2482.000000 1959.000000 627.000000 0 255 0
2489.000000 1974.000000 627.000000 0 255 0
2486.000000 1990.000000 628.000000 0 255 0
2483.000000 1937.000000 606.000000 0 255 0
2468.000000 1967.000000 606.000000 0 255 0
2477.000000 1955.000000 592.000000 0 255 0
2473.000000 1972.000000 623.000000 0 255 0
2481.000000 1952.000000 603.000000 0 255 0
2494.000000 1938.000000 603.000000 0 255 0
2475.000000 1922.000000 603.000000 0 255 0
2485.000000 1940.000000 615.000000 0 255 0
2491.000000 1971.000000 615.000000 0 255 0
2481.000000 1986.000000 615.000000 0 255 0
2486.000000 1952.000000 608.000000 0 255 0
2473.000000 1967.000000 608.000000 0 255 0
2476.000000 1954.000000 607.000000 0 255 0
2473.000000 1969.000000 607.000000 0 255 0
2482.000000 1981.000000 634.000000 0 255 0
2471.000000 1966.000000 634.000000 0 255 0
2484.000000 1952.000000 634.000000 0 255 0
2478.000000 1970.000000 605.000000 0 255 0
2423.000000 1946.000000 555.000000 0 255 0
2479.000000 1940.000000 605.000000 0 255 0
2483.000000 1981.000000 614.000000 0 255 0
2474.000000 1965.000000 613.000000 0 255 0
2483.000000 1951.000000 614.000000 0 255 0
2483.000000 1982.000000 615.000000 0 255 0
2487.000000 1952.000000 616.000000 0 255 0
2431.000000 1936.000000 561.000000 0 255 0
2475.000000 1946.000000 609.000000 0 255 0
2472.000000 1961.000000 609.000000 0 255 0
2483.000000 1962.000000 634.000000 0 255 0
2485.000000 1977.000000 634.000000 0 255 0
2488.000000 1993.000000 634.000000 0 255 0
2493.000000 1959.000000 635.000000 0 255 0
2469.000000 1974.000000 635.000000 0 255 0
2476.000000 1990.000000 635.000000 0 255 0
2491.000000 1935.000000 617.000000 0 255 0
2475.000000 1950.000000 617.000000 0 255 0
2476.000000 1980.000000 618.000000 0 255 0
2489.000000 1998.000000 619.000000 0 255 0
2491.000000 1983.000000 619.000000 0 255 0
2483.000000 1968.000000 619.000000 0 255 0
2486.000000 1953.000000 620.000000 0 255 0
2479.000000 1976.000000 618.000000 0 255 0
2480.000000 1961.000000 618.000000 0 255 0
2490.000000 1947.000000 619.000000 0 255 0
2494.000000 1932.000000 619.000000 0 255 0
2469.000000 1964.000000 631.000000 0 255 0
2477.000000 1950.000000 631.000000 0 255 0
2492.000000 1946.000000 625.000000 0 255 0
2477.000000 1960.000000 625.000000 0 255 0
2479.000000 1975.000000 625.000000 0 255 0
2483.000000 1991.000000 625.000000 0 255 0
2481.000000 1973.000000 618.000000 0 255 0
2481.000000 1958.000000 618.000000 0 255 0
2491.000000 1944.000000 618.000000 0 255 0
2478.000000 1947.000000 609.000000 0 255 0
2427.000000 1949.000000 560.000000 0 255 0
2477.000000 1962.000000 609.000000 0 255 0
2478.000000 1993.000000 610.000000 0 255 0
2485.000000 1982.000000 615.000000 0 255 0
2423.000000 1944.000000 566.000000 0 255 0
2474.000000 1963.000000 634.000000 0 255 0
2471.000000 1978.000000 633.000000 0 255 0
2480.000000 1995.000000 634.000000 0 255 0
2485.000000 1995.000000 617.000000 0 255 0
2488.000000 1980.000000 617.000000 0 255 0
2485.000000 1965.000000 617.000000 0 255 0
2483.000000 1950.000000 617.000000 0 255 0
2481.000000 1949.000000 602.000000 0 255 0
2484.000000 1995.000000 634.000000 0 255 0
2464.000000 1979.000000 633.000000 0 255 0
2489.000000 1966.000000 634.000000 0 255 0
2478.000000 1935.000000 634.000000 0 255 0
2498.000000 1937.000000 616.000000 0 255 0
2483.000000 1952.000000 615.000000 0 255 0
2487.000000 1967.000000 615.000000 0 255 0
2489.000000 1982.000000 615.000000 0 255 0
2455.000000 1951.000000 634.000000 0 255 0
2468.000000 1967.000000 634.000000 0 255 0
2472.000000 1982.000000 635.000000 0 255 0
2484.000000 1946.000000 622.000000 0 255 0
2430.000000 1948.000000 572.000000 0 255 0
2480.000000 1976.000000 621.000000 0 255 0
2491.000000 1981.000000 617.000000 0 255 0
2475.000000 1965.000000 617.000000 0 255 0
2478.000000 1950.000000 617.000000 0 255 0
2496.000000 1936.000000 617.000000 0 255 0
2478.000000 1967.000000 615.000000 0 255 0
2478.000000 1952.000000 615.000000 0 255 0
2420.000000 1944.000000 566.000000 0 255 0
2483.000000 1961.000000 597.000000 0 255 0
2488.000000 1946.000000 597.000000 0 255 0
2476.000000 1954.000000 608.000000 0 255 0
2477.000000 1969.000000 608.000000 0 255 0
2480.000000 1948.000000 606.000000 0 255 0
2476.000000 1971.000000 604.000000 0 255 0
2482.000000 1948.000000 601.000000 0 255 0
2483.000000 1953.000000 613.000000 0 255 0
2486.000000 1969.000000 614.000000 0 255 0
2489.000000 1950.000000 621.000000 0 255 0
2487.000000 1965.000000 621.000000 0 255 0
2490.000000 1940.000000 632.000000 0 255 0
2490.000000 1955.000000 632.000000 0 255 0
2482.000000 1970.000000 632.000000 0 255 0
2480.000000 1980.000000 609.000000 0 255 0
2481.000000 1950.000000 609.000000 0 255 0
2482.000000 1984.000000 616.000000 0 255 0
2476.000000 1954.000000 616.000000 0 255 0
2484.000000 1939.000000 617.000000 0 255 0
2480.000000 1945.000000 601.000000 0 255 0
2479.000000 1985.000000 618.000000 0 255 0
2479.000000 1970.000000 619.000000 0 255 0
2476.000000 1954.000000 619.000000 0 255 0
2485.000000 1940.000000 619.000000 0 255 0
2481.000000 1961.000000 634.000000 0 255 0
2481.000000 1976.000000 634.000000 0 255 0
2486.000000 1992.000000 634.000000 0 255 0
2487.000000 1939.000000 606.000000 0 255 0
2442.000000 1942.000000 557.000000 0 255 0
2472.000000 1954.000000 606.000000 0 255 0
2483.000000 1942.000000 629.000000 0 255 0
2472.000000 1956.000000 629.000000 0 255 0
2471.000000 1972.000000 629.000000 0 255 0
2477.000000 1987.000000 629.000000 0 255 0
2476.000000 1985.000000 625.000000 0 255 0
2471.000000 1970.000000 625.000000 0 255 0
2465.000000 1955.000000 625.000000 0 255 0
2461.000000 1925.000000 624.000000 0 255 0
2482.000000 1980.000000 605.000000 0 255 0
2479.000000 1966.000000 614.000000 0 255 0
2477.000000 1951.000000 614.000000 0 255 0
2480.000000 1944.000000 605.000000 0 255 0
2429.000000 1937.000000 556.000000 0 255 0
2456.000000 1923.000000 556.000000 0 255 0
2479.000000 1972.000000 615.000000 0 255 0
2477.000000 1957.000000 615.000000 0 255 0
2487.000000 1942.000000 615.000000 0 255 0
2464.000000 1946.000000 607.000000 0 255 0
2437.000000 1949.000000 558.000000 0 255 0
2471.000000 1961.000000 607.000000 0 255 0
2489.000000 1937.000000 608.000000 0 255 0
2473.000000 1951.000000 608.000000 0 255 0
2476.000000 1982.000000 609.000000 0 255 0
2488.000000 1968.000000 618.000000 0 255 0
2440.000000 1926.000000 561.000000 0 255 0
2481.000000 1938.000000 611.000000 0 255 0
2478.000000 1954.000000 611.000000 0 255 0
2483.000000 1969.000000 612.000000 0 255 0
2469.000000 1959.000000 594.000000 0 255 0
2485.000000 1938.000000 634.000000 0 255 0
2478.000000 1968.000000 634.000000 0 255 0
2479.000000 1983.000000 634.000000 0 255 0
2490.000000 1967.000000 616.000000 0 255 0
2489.000000 1982.000000 617.000000 0 255 0
2479.000000 1955.000000 615.000000 0 255 0
2487.000000 1940.000000 616.000000 0 255 0
2474.000000 1960.000000 631.000000 0 255 0
2481.000000 1975.000000 631.000000 0 255 0
2487.000000 1991.000000 631.000000 0 255 0
2476.000000 1947.000000 607.000000 0 255 0
2484.000000 1942.000000 614.000000 0 255 0
2488.000000 1957.000000 614.000000 0 255 0
2487.000000 1946.000000 620.000000 0 255 0
2498.000000 1932.000000 620.000000 0 255 0
2482.000000 1945.000000 595.000000 0 255 0
2482.000000 1985.000000 609.000000 0 255 0
2472.000000 1970.000000 609.000000 0 255 0
2476.000000 1955.000000 609.000000 0 255 0
2491.000000 1949.000000 593.000000 0 255 0
2475.000000 1977.000000 618.000000 0 255 0
2473.000000 1962.000000 618.000000 0 255 0
2483.000000 1948.000000 618.000000 0 255 0
2487.000000 1933.000000 618.000000 0 255 0
2482.000000 1985.000000 619.000000 0 255 0
2474.000000 1955.000000 619.000000 0 255 0
2487.000000 1941.000000 619.000000 0 255 0
2470.000000 1953.000000 624.000000 0 255 0
2475.000000 1970.000000 624.000000 0 255 0
2484.000000 1962.000000 603.000000 0 255 0
2487.000000 1977.000000 603.000000 0 255 0
2464.000000 1987.000000 632.000000 0 255 0
2478.000000 1972.000000 632.000000 0 255 0
2467.000000 1957.000000 632.000000 0 255 0
2497.000000 1943.000000 633.000000 0 255 0
2480.000000 1937.000000 631.000000 0 255 0
2477.000000 1982.000000 632.000000 0 255 0
2489.000000 1981.000000 619.000000 0 255 0
2474.000000 1965.000000 619.000000 0 255 0
2482.000000 1950.000000 619.000000 0 255 0
2423.000000 1943.000000 570.000000 0 255 0
2497.000000 1936.000000 619.000000 0 255 0
2479.000000 1941.000000 600.000000 0 255 0
2457.000000 1925.000000 600.000000 0 255 0
2477.000000 1957.000000 632.000000 0 255 0
2473.000000 1972.000000 632.000000 0 255 0
2477.000000 1988.000000 632.000000 0 255 0
2482.000000 1996.000000 609.000000 0 255 0
2477.000000 1965.000000 609.000000 0 255 0
2476.000000 1957.000000 622.000000 0 255 0
2480.000000 1973.000000 622.000000 0 255 0
2485.000000 1989.000000 622.000000 0 255 0
2481.000000 1985.000000 619.000000 0 255 0
2480.000000 1970.000000 619.000000 0 255 0
2473.000000 1955.000000 619.000000 0 255 0
2484.000000 1940.000000 619.000000 0 255 0
2479.000000 1942.000000 606.000000 0 255 0
2450.000000 1945.000000 557.000000 0 255 0
2493.000000 1983.000000 607.000000 0 255 0
2486.000000 1968.000000 607.000000 0 255 0
2485.000000 1938.000000 607.000000 0 255 0
2468.000000 1953.000000 618.000000 0 255 0
2473.000000 1969.000000 618.000000 0 255 0
2472.000000 1985.000000 619.000000 0 255 0
2482.000000 1969.000000 618.000000 0 255 0
2487.000000 1939.000000 618.000000 0 255 0
2438.000000 1946.000000 557.000000 0 255 0
2473.000000 1971.000000 605.000000 0 255 0
2480.000000 1949.000000 617.000000 0 255 0
2434.000000 1950.000000 567.000000 0 255 0
2475.000000 1979.000000 617.000000 0 255 0
2471.000000 1939.000000 606.000000 0 255 0
2440.000000 1942.000000 557.000000 0 255 0
2470.000000 1954.000000 606.000000 0 255 0
2469.000000 1969.000000 606.000000 0 255 0
2429.000000 1948.000000 553.000000 0 255 0
2481.000000 1939.000000 602.000000 0 255 0
2488.000000 1925.000000 603.000000 0 255 0
2489.000000 1944.000000 625.000000 0 255 0
