1956.000000 1992.000000 195.000000 0 255 0
1921.000000 1972.000000 201.000000 0 255 0
1914.000000 1955.000000 203.000000 0 255 0
1927.000000 1940.000000 201.000000 0 255 0
1958.000000 1926.000000 197.000000 0 255 0
1934.000000 2033.000000 215.000000 0 255 0
1914.000000 2016.000000 219.000000 0 255 0
1933.000000 2004.000000 217.000000 0 255 0
1921.000000 1959.000000 220.000000 0 255 0
1916.000000 1945.000000 222.000000 0 255 0
1911.000000 1930.000000 223.000000 0 255 0
1908.000000 1916.000000 224.000000 0 255 0
1908.000000 2031.000000 237.000000 0 255 0
1921.000000 2016.000000 236.000000 0 255 0
1936.000000 1978.000000 197.000000 0 255 0
1922.000000 1960.000000 200.000000 0 255 0
1934.000000 1945.000000 199.000000 0 255 0
1939.000000 1929.000000 199.000000 0 255 0
1903.000000 2038.000000 246.000000 0 255 0
1942.000000 2027.000000 241.000000 0 255 0
1968.000000 2009.000000 199.000000 0 255 0
1940.000000 1989.000000 204.000000 0 255 0
1931.000000 1972.000000 206.000000 0 255 0
1920.000000 1955.000000 208.000000 0 255 0
1913.000000 1938.000000 210.000000 0 255 0
1911.000000 1922.000000 211.000000 0 255 0
1928.000000 1907.000000 208.000000 0 255 0
1924.000000 2014.000000 216.000000 0 255 0
1938.000000 2000.000000 214.000000 0 255 0
1934.000000 1968.000000 216.000000 0 255 0
1924.000000 1952.000000 218.000000 0 255 0
1919.000000 1936.000000 220.000000 0 255 0
1915.000000 1920.000000 221.000000 0 255 0
1935.000000 1906.000000 218.000000 0 255 0
1901.000000 2035.000000 244.000000 0 255 0
1933.000000 2022.000000 240.000000 0 255 0
1959.000000 2004.000000 198.000000 0 255 0
1942.000000 1986.000000 201.000000 0 255 0
1925.000000 1968.000000 204.000000 0 255 0
1919.000000 1951.000000 206.000000 0 255 0
1914.000000 1935.000000 207.000000 0 255 0
1916.000000 1919.000000 207.000000 0 255 0
1910.000000 2026.000000 230.000000 0 255 0
1924.000000 2011.000000 229.000000 0 255 0
1932.000000 1963.000000 229.000000 0 255 0
1912.000000 2046.000000 245.000000 0 255 0
1932.000000 2033.000000 243.000000 0 255 0
1948.000000 1997.000000 203.000000 0 255 0
1926.000000 1978.000000 207.000000 0 255 0
1929.000000 1962.000000 207.000000 0 255 0
1919.000000 1945.000000 209.000000 0 255 0
1916.000000 1929.000000 210.000000 0 255 0
1913.000000 1913.000000 211.000000 0 255 0
1917.000000 2023.000000 216.000000 0 255 0
1920.000000 2007.000000 217.000000 0 255 0
1959.000000 1995.000000 212.000000 0 255 0
1976.000000 1980.000000 210.000000 0 255 0
1926.000000 1959.000000 218.000000 0 255 0
1926.000000 1943.000000 218.000000 0 255 0
1923.000000 1926.000000 219.000000 0 255 0
1919.000000 1910.000000 221.000000 0 255 0
1898.000000 2041.000000 242.000000 0 255 0
1906.000000 2026.000000 241.000000 0 255 0
1963.000000 1997.000000 194.000000 0 255 0
1940.000000 1978.000000 199.000000 0 255 0
1921.000000 1961.000000 203.000000 0 255 0
1919.000000 1945.000000 204.000000 0 255 0
1917.000000 1930.000000 204.000000 0 255 0
1949.000000 1916.000000 200.000000 0 255 0
1898.000000 2039.000000 241.000000 0 255 0
1908.000000 2024.000000 240.000000 0 255 0
1959.000000 1995.000000 194.000000 0 255 0
1927.000000 1976.000000 200.000000 0 255 0
1924.000000 1959.000000 200.000000 0 255 0
1939.000000 1944.000000 198.000000 0 255 0
1939.000000 2028.000000 213.000000 0 255 0
1923.000000 2010.000000 216.000000 0 255 0
1969.000000 1998.000000 209.000000 0 255 0
1961.000000 1981.000000 211.000000 0 255 0
1924.000000 1962.000000 217.000000 0 255 0
1926.000000 1946.000000 217.000000 0 255 0
1922.000000 1930.000000 218.000000 0 255 0
1916.000000 1913.000000 219.000000 0 255 0
1901.000000 2040.000000 244.000000 0 255 0
1915.000000 2025.000000 242.000000 0 255 0
1953.000000 1990.000000 199.000000 0 255 0
1927.000000 1971.000000 203.000000 0 255 0
1923.000000 1955.000000 204.000000 0 255 0
1917.000000 1938.000000 206.000000 0 255 0
1922.000000 1922.000000 206.000000 0 255 0
1934.000000 1907.000000 204.000000 0 255 0
1948.000000 2040.000000 219.000000 0 255 0
1920.000000 2021.000000 224.000000 0 255 0
1928.000000 2007.000000 223.000000 0 255 0
1938.000000 1977.000000 222.000000 0 255 0
1932.000000 1962.000000 223.000000 0 255 0
1926.000000 1946.000000 224.000000 0 255 0
1916.000000 1930.000000 226.000000 0 255 0
1927.000000 1915.000000 224.000000 0 255 0
1928.000000 2043.000000 246.000000 0 255 0
1971.000000 2016.000000 201.000000 0 255 0
1944.000000 1999.000000 205.000000 0 255 0
1946.000000 1984.000000 205.000000 0 255 0
1936.000000 1968.000000 207.000000 0 255 0
1929.000000 1953.000000 208.000000 0 255 0
1919.000000 1938.000000 210.000000 0 255 0
1915.000000 1923.000000 211.000000 0 255 0
1939.000000 1910.000000 207.000000 0 255 0
1946.000000 2024.000000 208.000000 0 255 0
1932.000000 2006.000000 211.000000 0 255 0
1958.000000 1992.000000 208.000000 0 255 0
1935.000000 1973.000000 212.000000 0 255 0
1927.000000 1956.000000 214.000000 0 255 0
1924.000000 1940.000000 215.000000 0 255 0
1913.000000 1923.000000 217.000000 0 255 0
1913.000000 1907.000000 217.000000 0 255 0
1895.000000 2039.000000 242.000000 0 255 0
1901.000000 2025.000000 242.000000 0 255 0
1964.000000 2018.000000 234.000000 0 255 0
1923.000000 2049.000000 239.000000 0 255 0
1905.000000 2031.000000 242.000000 0 255 0
1958.000000 2021.000000 235.000000 0 255 0
1954.000000 1999.000000 197.000000 0 255 0
1931.000000 1980.000000 202.000000 0 255 0
1919.000000 1963.000000 204.000000 0 255 0
1917.000000 1947.000000 205.000000 0 255 0
1909.000000 1930.000000 207.000000 0 255 0
1939.000000 1916.000000 203.000000 0 255 0
1945.000000 2035.000000 214.000000 0 255 0
1918.000000 2018.000000 218.000000 0 255 0
1931.000000 2005.000000 216.000000 0 255 0
1952.000000 1979.000000 214.000000 0 255 0
1923.000000 1962.000000 218.000000 0 255 0
1918.000000 1948.000000 219.000000 0 255 0
1918.000000 1934.000000 220.000000 0 255 0
1908.000000 1920.000000 221.000000 0 255 0
1914.000000 1906.000000 220.000000 0 255 0
1938.000000 2053.000000 240.000000 0 255 0
1912.000000 2035.000000 244.000000 0 255 0
1932.000000 2001.000000 205.000000 0 255 0
1937.000000 1987.000000 205.000000 0 255 0
1937.000000 1972.000000 205.000000 0 255 0
1923.000000 1955.000000 208.000000 0 255 0
1914.000000 1940.000000 210.000000 0 255 0
1905.000000 1925.000000 212.000000 0 255 0
1911.000000 1911.000000 212.000000 0 255 0
1897.000000 2037.000000 242.000000 0 255 0
1905.000000 2022.000000 242.000000 0 255 0
1956.000000 1992.000000 196.000000 0 255 0
1927.000000 1973.000000 201.000000 0 255 0
1916.000000 1956.000000 203.000000 0 255 0
1916.000000 1941.000000 204.000000 0 255 0
1917.000000 1925.000000 204.000000 0 255 0
1905.000000 2028.000000 232.000000 0 255 0
1921.000000 2014.000000 230.000000 0 255 0
1942.000000 1935.000000 229.000000 0 255 0
1949.000000 2050.000000 228.000000 0 255 0
1907.000000 2029.000000 234.000000 0 255 0
1914.000000 2014.000000 233.000000 0 255 0
1942.000000 1995.000000 191.000000 0 255 0
1932.000000 1978.000000 193.000000 0 255 0
1951.000000 1964.000000 191.000000 0 255 0
1951.000000 1954.000000 229.000000 0 255 0
1925.000000 1936.000000 234.000000 0 255 0
1937.000000 2053.000000 241.000000 0 255 0
1923.000000 2037.000000 244.000000 0 255 0
1928.000000 2001.000000 206.000000 0 255 0
1931.000000 1986.000000 207.000000 0 255 0
1941.000000 1973.000000 206.000000 0 255 0
1921.000000 1957.000000 209.000000 0 255 0
1913.000000 1942.000000 211.000000 0 255 0
1903.000000 1927.000000 213.000000 0 255 0
1906.000000 1913.000000 213.000000 0 255 0
1942.000000 1901.000000 208.000000 0 255 0
1904.000000 2034.000000 236.000000 0 255 0
1913.000000 2021.000000 235.000000 0 255 0
1962.000000 2012.000000 228.000000 0 255 0
1951.000000 1992.000000 191.000000 0 255 0
1938.000000 1976.000000 193.000000 0 255 0
1932.000000 1961.000000 194.000000 0 255 0
1924.000000 2016.000000 211.000000 0 255 0
1932.000000 2001.000000 211.000000 0 255 0
1930.000000 1970.000000 213.000000 0 255 0
1924.000000 1954.000000 214.000000 0 255 0
1923.000000 1938.000000 215.000000 0 255 0
1914.000000 1922.000000 217.000000 0 255 0
1918.000000 1907.000000 217.000000 0 255 0
1913.000000 2017.000000 217.000000 0 255 0
1938.000000 2004.000000 214.000000 0 255 0
1928.000000 1971.000000 216.000000 0 255 0
1925.000000 1954.000000 217.000000 0 255 0
1926.000000 1939.000000 217.000000 0 255 0
1918.000000 1922.000000 218.000000 0 255 0
1920.000000 1906.000000 218.000000 0 255 0
1890.000000 2039.000000 240.000000 0 255 0
1901.000000 2026.000000 239.000000 0 255 0
1927.000000 2015.000000 236.000000 0 255 0
1911.000000 2032.000000 226.000000 0 255 0
1912.000000 2018.000000 226.000000 0 255 0
1923.000000 2006.000000 225.000000 0 255 0
1939.000000 1966.000000 223.000000 0 255 0
1921.000000 1950.000000 226.000000 0 255 0
1915.000000 1936.000000 227.000000 0 255 0
1909.000000 1921.000000 228.000000 0 255 0
1924.000000 1909.000000 226.000000 0 255 0
1903.000000 2044.000000 243.000000 0 255 0
1905.000000 2030.000000 243.000000 0 255 0
1947.000000 2020.000000 237.000000 0 255 0
1954.000000 2002.000000 198.000000 0 255 0
1955.000000 1988.000000 198.000000 0 255 0
1922.000000 1970.000000 203.000000 0 255 0
1918.000000 1955.000000 204.000000 0 255 0
1914.000000 1940.000000 205.000000 0 255 0
1925.000000 1926.000000 203.000000 0 255 0
1912.000000 2020.000000 222.000000 0 255 0
1923.000000 2005.000000 221.000000 0 255 0
1930.000000 1957.000000 222.000000 0 255 0
1919.000000 1940.000000 225.000000 0 255 0
1915.000000 1924.000000 226.000000 0 255 0
1947.000000 2047.000000 223.000000 0 255 0
1907.000000 2028.000000 229.000000 0 255 0
1913.000000 2015.000000 228.000000 0 255 0
1941.000000 1962.000000 225.000000 0 255 0
1920.000000 1946.000000 228.000000 0 255 0
1921.000000 1932.000000 228.000000 0 255 0
1906.000000 2034.000000 227.000000 0 255 0
1914.000000 2018.000000 227.000000 0 255 0
1960.000000 2007.000000 221.000000 0 255 0
1940.000000 1940.000000 226.000000 0 255 0
1927.000000 2050.000000 240.000000 0 255 0
1907.000000 2032.000000 243.000000 0 255 0
1945.000000 2020.000000 239.000000 0 255 0
1949.000000 1997.000000 199.000000 0 255 0
1926.000000 1979.000000 203.000000 0 255 0
1919.000000 1962.000000 204.000000 0 255 0
1915.000000 1945.000000 206.000000 0 255 0
1920.000000 1929.000000 205.000000 0 255 0
1926.000000 2024.000000 215.000000 0 255 0
1929.000000 2008.000000 215.000000 0 255 0
1939.000000 1993.000000 214.000000 0 255 0
1908.000000 2030.000000 227.000000 0 255 0
1922.000000 2016.000000 226.000000 0 255 0
1930.000000 1953.000000 226.000000 0 255 0
1921.000000 1936.000000 228.000000 0 255 0
1949.000000 1922.000000 224.000000 0 255 0
1936.000000 2052.000000 237.000000 0 255 0
1900.000000 2031.000000 243.000000 0 255 0
1921.000000 2018.000000 240.000000 0 255 0
1950.000000 1998.000000 197.000000 0 255 0
1932.000000 1980.000000 200.000000 0 255 0
1919.000000 1963.000000 203.000000 0 255 0
1919.000000 1946.000000 203.000000 0 255 0
1930.000000 1931.000000 202.000000 0 255 0
1934.000000 2036.000000 221.000000 0 255 0
1917.000000 2018.000000 224.000000 0 255 0
1945.000000 2005.000000 220.000000 0 255 0
1923.000000 1955.000000 224.000000 0 255 0
1919.000000 1938.000000 225.000000 0 255 0
1920.000000 1922.000000 226.000000 0 255 0
1927.000000 2051.000000 242.000000 0 255 0
1915.000000 2033.000000 245.000000 0 255 0
1949.000000 2000.000000 202.000000 0 255 0
1928.000000 1981.000000 206.000000 0 255 0
1925.000000 1965.000000 207.000000 0 255 0
1919.000000 1948.000000 208.000000 0 255 0
1913.000000 1931.000000 210.000000 0 255 0
1907.000000 1915.000000 211.000000 0 255 0
1912.000000 2047.000000 242.000000 0 255 0
1910.000000 2031.000000 242.000000 0 255 0
1958.000000 2020.000000 236.000000 0 255 0
1950.000000 1996.000000 198.000000 0 255 0
1925.000000 1977.000000 203.000000 0 255 0
1923.000000 1960.000000 204.000000 0 255 0
1913.000000 1943.000000 206.000000 0 255 0
1920.000000 1928.000000 205.000000 0 255 0
1916.000000 2048.000000 241.000000 0 255 0
1909.000000 2032.000000 242.000000 0 255 0
1933.000000 2020.000000 239.000000 0 255 0
1971.000000 2006.000000 194.000000 0 255 0
1950.000000 1988.000000 198.000000 0 255 0
1934.000000 1971.000000 200.000000 0 255 0
1923.000000 1955.000000 202.000000 0 255 0
1930.000000 1940.000000 202.000000 0 255 0
1950.000000 1926.000000 199.000000 0 255 0
1917.000000 2046.000000 239.000000 0 255 0
1905.000000 2029.000000 241.000000 0 255 0
1930.000000 2015.000000 238.000000 0 255 0
1950.000000 1995.000000 196.000000 0 255 0
1927.000000 1976.000000 201.000000 0 255 0
1913.000000 1959.000000 203.000000 0 255 0
1926.000000 1943.000000 202.000000 0 255 0
1937.000000 1928.000000 200.000000 0 255 0
1905.000000 2033.000000 233.000000 0 255 0
1916.000000 2018.000000 232.000000 0 255 0
1945.000000 1997.000000 191.000000 0 255 0
1942.000000 1980.000000 192.000000 0 255 0
1950.000000 1965.000000 192.000000 0 255 0
1909.000000 2026.000000 223.000000 0 255 0
1928.000000 2013.000000 221.000000 0 255 0
1943.000000 1993.000000 181.000000 0 255 0
1932.000000 1953.000000 223.000000 0 255 0
1922.000000 1938.000000 225.000000 0 255 0
1929.000000 1923.000000 225.000000 0 255 0
1906.000000 2040.000000 236.000000 0 255 0
1908.000000 2024.000000 236.000000 0 255 0
1944.000000 2013.000000 232.000000 0 255 0
1944.000000 1976.000000 194.000000 0 255 0
1932.000000 1959.000000 196.000000 0 255 0
1951.000000 1945.000000 194.000000 0 255 0
1909.000000 2031.000000 228.000000 0 255 0
1924.000000 2018.000000 227.000000 0 255 0
1943.000000 2006.000000 224.000000 0 255 0
1930.000000 1946.000000 227.000000 0 255 0
1927.000000 1931.000000 228.000000 0 255 0
1931.000000 2054.000000 240.000000 0 255 0
1894.000000 2035.000000 246.000000 0 255 0
1909.000000 2023.000000 244.000000 0 255 0
2351.000000 1625.000000 536.000000 0 255 0
2330.000000 1611.000000 624.000000 0 255 0
2346.000000 1603.000000 579.000000 0 255 0
2324.000000 1584.000000 623.000000 0 255 0
2313.000000 1571.000000 623.000000 0 255 0
2314.000000 1558.000000 623.000000 0 255 0
2306.000000 1545.000000 622.000000 0 255 0
2344.000000 1614.000000 589.000000 0 255 0
2337.000000 1613.000000 678.000000 0 255 0
2331.000000 1607.000000 548.000000 0 255 0
2343.000000 1606.000000 633.000000 0 255 0
2344.000000 1601.000000 589.000000 0 255 0
2327.000000 1600.000000 677.000000 0 255 0
2345.000000 1592.000000 633.000000 0 255 0
2336.000000 1586.000000 678.000000 0 255 0
2322.000000 1566.000000 632.000000 0 255 0
2315.000000 1553.000000 632.000000 0 255 0
2310.000000 1540.000000 632.000000 0 255 0
2349.000000 1618.000000 544.000000 0 255 0
2349.000000 1612.000000 586.000000 0 255 0
2345.000000 1611.000000 675.000000 0 255 0
2323.000000 1605.000000 629.000000 0 255 0
2327.000000 1599.000000 674.000000 0 255 0
2331.000000 1591.000000 630.000000 0 255 0
2325.000000 1578.000000 629.000000 0 255 0
2316.000000 1565.000000 629.000000 0 255 0
2307.000000 1553.000000 629.000000 0 255 0
2337.000000 1537.000000 630.000000 0 255 0
2315.000000 1670.000000 570.000000 0 255 0
2335.000000 1616.000000 570.000000 0 255 0
2345.000000 1610.000000 615.000000 0 255 0
2337.000000 1597.000000 615.000000 0 255 0
2336.000000 1583.000000 615.000000 0 255 0
2328.000000 1570.000000 614.000000 0 255 0
2300.000000 1559.000000 614.000000 0 255 0
2286.000000 1546.000000 614.000000 0 255 0
2302.000000 1669.000000 562.000000 0 255 0
2322.000000 1654.000000 562.000000 0 255 0
2308.000000 1547.000000 628.000000 0 255 0
2312.000000 1560.000000 628.000000 0 255 0
2318.000000 1573.000000 628.000000 0 255 0
2327.000000 1579.000000 672.000000 0 255 0
2327.000000 1586.000000 628.000000 0 255 0
2344.000000 1590.000000 584.000000 0 255 0
2338.000000 1592.000000 672.000000 0 255 0
2344.000000 1597.000000 542.000000 0 255 0
2301.000000 1664.000000 554.000000 0 255 0
2296.000000 1651.000000 553.000000 0 255 0
2354.000000 1608.000000 553.000000 0 255 0
2361.000000 1594.000000 553.000000 0 255 0
2321.000000 1595.000000 638.000000 0 255 0
2341.000000 1589.000000 595.000000 0 255 0
2337.000000 1588.000000 683.000000 0 255 0
2339.000000 1581.000000 638.000000 0 255 0
2340.000000 1567.000000 638.000000 0 255 0
2333.000000 1554.000000 638.000000 0 255 0
2324.000000 1528.000000 638.000000 0 255 0
2320.000000 1515.000000 637.000000 0 255 0
2306.000000 1655.000000 554.000000 0 255 0
2318.000000 1641.000000 554.000000 0 255 0
2333.000000 1600.000000 554.000000 0 255 0
2347.000000 1591.000000 597.000000 0 255 0
2353.000000 1585.000000 553.000000 0 255 0
2349.000000 1585.000000 642.000000 0 255 0
2341.000000 1559.000000 641.000000 0 255 0
2330.000000 1546.000000 641.000000 0 255 0
2332.000000 1533.000000 641.000000 0 255 0
2303.000000 1522.000000 640.000000 0 255 0
2302.000000 1525.000000 643.000000 0 255 0
2311.000000 1537.000000 643.000000 0 255 0
2310.000000 1551.000000 642.000000 0 255 0
2308.000000 1565.000000 642.000000 0 255 0
2343.000000 1569.000000 688.000000 0 255 0
2342.000000 1583.000000 688.000000 0 255 0
2368.000000 1595.000000 688.000000 0 255 0
2343.000000 1602.000000 557.000000 0 255 0
2342.000000 1656.000000 556.000000 0 255 0
2302.000000 1536.000000 613.000000 0 255 0
2309.000000 1549.000000 613.000000 0 255 0
2315.000000 1562.000000 613.000000 0 255 0
2324.000000 1575.000000 613.000000 0 255 0
2357.000000 1573.000000 703.000000 0 255 0
2379.000000 1579.000000 658.000000 0 255 0
2339.000000 1587.000000 613.000000 0 255 0
2344.000000 1588.000000 702.000000 0 255 0
2382.000000 1593.000000 658.000000 0 255 0
2312.000000 1650.000000 570.000000 0 255 0
2299.000000 1663.000000 570.000000 0 255 0
2360.000000 1595.000000 662.000000 0 255 0
2348.000000 1589.000000 616.000000 0 255 0
2349.000000 1584.000000 572.000000 0 255 0
2338.000000 1583.000000 661.000000 0 255 0
2341.000000 1576.000000 616.000000 0 255 0
2352.000000 1569.000000 661.000000 0 255 0
2332.000000 1563.000000 616.000000 0 255 0
2320.000000 1550.000000 615.000000 0 255 0
2305.000000 1538.000000 615.000000 0 255 0
2286.000000 1526.000000 614.000000 0 255 0
2339.000000 1577.000000 699.000000 0 255 0
2340.000000 1586.000000 656.000000 0 255 0
2352.000000 1591.000000 700.000000 0 255 0
2318.000000 1537.000000 615.000000 0 255 0
2300.000000 1552.000000 614.000000 0 255 0
2331.000000 1564.000000 614.000000 0 255 0
2371.000000 1575.000000 615.000000 0 255 0
2337.000000 1580.000000 702.000000 0 255 0
2350.000000 1586.000000 659.000000 0 255 0
2379.000000 1596.000000 570.000000 0 255 0
2342.000000 1601.000000 659.000000 0 255 0
2315.000000 1654.000000 569.000000 0 255 0
2299.000000 1668.000000 569.000000 0 255 0
2283.000000 1658.000000 553.000000 0 255 0
2288.000000 1644.000000 553.000000 0 255 0
2328.000000 1602.000000 552.000000 0 255 0
2341.000000 1594.000000 683.000000 0 255 0
2341.000000 1588.000000 552.000000 0 255 0
2342.000000 1587.000000 638.000000 0 255 0
2344.000000 1582.000000 594.000000 0 255 0
2339.000000 1581.000000 683.000000 0 255 0
2328.000000 1568.000000 682.000000 0 255 0
2335.000000 1560.000000 638.000000 0 255 0
2313.000000 1522.000000 637.000000 0 255 0
2352.000000 1520.000000 639.000000 0 255 0
2316.000000 1537.000000 637.000000 0 255 0
2328.000000 1549.000000 637.000000 0 255 0
2368.000000 1560.000000 638.000000 0 255 0
2344.000000 1571.000000 682.000000 0 255 0
2343.000000 1576.000000 637.000000 0 255 0
2337.000000 1585.000000 681.000000 0 255 0
2343.000000 1589.000000 637.000000 0 255 0
2359.000000 1595.000000 594.000000 0 255 0
2339.000000 1596.000000 548.000000 0 255 0
2325.000000 1643.000000 571.000000 0 255 0
2306.000000 1539.000000 615.000000 0 255 0
2313.000000 1552.000000 615.000000 0 255 0
2341.000000 1577.000000 615.000000 0 255 0
2333.000000 1578.000000 702.000000 0 255 0
2337.000000 1583.000000 658.000000 0 255 0
2341.000000 1590.000000 615.000000 0 255 0
2297.000000 1651.000000 571.000000 0 255 0
2301.000000 1518.000000 639.000000 0 255 0
2343.000000 1528.000000 640.000000 0 255 0
2327.000000 1543.000000 639.000000 0 255 0
2377.000000 1553.000000 640.000000 0 255 0
2326.000000 1570.000000 639.000000 0 255 0
2357.000000 1575.000000 685.000000 0 255 0
2323.000000 1584.000000 639.000000 0 255 0
2338.000000 1589.000000 595.000000 0 255 0
2351.000000 1589.000000 684.000000 0 255 0
2370.000000 1608.000000 553.000000 0 255 0
2312.000000 1659.000000 562.000000 0 255 0
2335.000000 1644.000000 562.000000 0 255 0
2353.000000 1589.000000 561.000000 0 255 0
2333.000000 1549.000000 612.000000 0 255 0
2304.000000 1565.000000 611.000000 0 255 0
2327.000000 1577.000000 611.000000 0 255 0
2339.000000 1578.000000 701.000000 0 255 0
2347.000000 1585.000000 656.000000 0 255 0
2346.000000 1592.000000 701.000000 0 255 0
2351.000000 1598.000000 656.000000 0 255 0
2372.000000 1609.000000 568.000000 0 255 0
2322.000000 1652.000000 568.000000 0 255 0
2292.000000 1666.000000 568.000000 0 255 0
2299.000000 1659.000000 553.000000 0 255 0
2341.000000 1644.000000 553.000000 0 255 0
2324.000000 1605.000000 553.000000 0 255 0
2335.000000 1597.000000 683.000000 0 255 0
2345.000000 1590.000000 552.000000 0 255 0
2335.000000 1590.000000 638.000000 0 255 0
2347.000000 1584.000000 594.000000 0 255 0
2338.000000 1583.000000 683.000000 0 255 0
2335.000000 1576.000000 638.000000 0 255 0
2321.000000 1571.000000 682.000000 0 255 0
2338.000000 1563.000000 638.000000 0 255 0
2315.000000 1524.000000 637.000000 0 255 0
2310.000000 1548.000000 653.000000 0 255 0
2333.000000 1568.000000 697.000000 0 255 0
2342.000000 1582.000000 697.000000 0 255 0
2346.000000 1590.000000 653.000000 0 255 0
2355.000000 1596.000000 697.000000 0 255 0
2314.000000 1662.000000 554.000000 0 255 0
2302.000000 1649.000000 553.000000 0 255 0
2350.000000 1606.000000 552.000000 0 255 0
2316.000000 1530.000000 633.000000 0 255 0
2315.000000 1545.000000 633.000000 0 255 0
2330.000000 1558.000000 634.000000 0 255 0
2304.000000 1574.000000 633.000000 0 255 0
2344.000000 1576.000000 678.000000 0 255 0
2380.000000 1583.000000 635.000000 0 255 0
2354.000000 1590.000000 678.000000 0 255 0
2335.000000 1548.000000 653.000000 0 255 0
2284.000000 1558.000000 609.000000 0 255 0
2315.000000 1570.000000 609.000000 0 255 0
2342.000000 1571.000000 698.000000 0 255 0
2325.000000 1576.000000 652.000000 0 255 0
2332.000000 1583.000000 609.000000 0 255 0
2343.000000 1585.000000 697.000000 0 255 0
2356.000000 1588.000000 653.000000 0 255 0
2360.000000 1595.000000 609.000000 0 255 0
2345.000000 1598.000000 697.000000 0 255 0
2344.000000 1575.000000 704.000000 0 255 0
2336.000000 1585.000000 660.000000 0 255 0
2383.000000 1587.000000 706.000000 0 255 0
2324.000000 1600.000000 660.000000 0 255 0
2314.000000 1539.000000 652.000000 0 255 0
2328.000000 1552.000000 652.000000 0 255 0
2305.000000 1558.000000 608.000000 0 255 0
2328.000000 1570.000000 608.000000 0 255 0
2337.000000 1571.000000 697.000000 0 255 0
2347.000000 1578.000000 652.000000 0 255 0
2339.000000 1583.000000 608.000000 0 255 0
2349.000000 1584.000000 697.000000 0 255 0
2335.000000 1590.000000 566.000000 0 255 0
2332.000000 1599.000000 696.000000 0 255 0
2317.000000 1645.000000 565.000000 0 255 0
2305.000000 1659.000000 565.000000 0 255 0
2318.000000 1658.000000 559.000000 0 255 0
2329.000000 1644.000000 559.000000 0 255 0
2336.000000 1589.000000 558.000000 0 255 0
2352.000000 1582.000000 602.000000 0 255 0
2333.000000 1569.000000 602.000000 0 255 0
2311.000000 1525.000000 630.000000 0 255 0
2308.000000 1538.000000 630.000000 0 255 0
2322.000000 1551.000000 630.000000 0 255 0
2323.000000 1564.000000 630.000000 0 255 0
2331.000000 1577.000000 630.000000 0 255 0
2345.000000 1583.000000 675.000000 0 255 0
2342.000000 1590.000000 630.000000 0 255 0
2355.000000 1595.000000 586.000000 0 255 0
2356.000000 1596.000000 676.000000 0 255 0
2351.000000 1602.000000 544.000000 0 255 0
2292.000000 1661.000000 553.000000 0 255 0
2270.000000 1648.000000 553.000000 0 255 0
2361.000000 1604.000000 552.000000 0 255 0
2340.000000 1598.000000 683.000000 0 255 0
2348.000000 1591.000000 552.000000 0 255 0
2353.000000 1590.000000 638.000000 0 255 0
2348.000000 1585.000000 594.000000 0 255 0
2344.000000 1584.000000 683.000000 0 255 0
2342.000000 1577.000000 638.000000 0 255 0
2343.000000 1571.000000 683.000000 0 255 0
2333.000000 1564.000000 638.000000 0 255 0
2338.000000 1550.000000 638.000000 0 255 0
2314.000000 1525.000000 637.000000 0 255 0
2315.000000 1653.000000 567.000000 0 255 0
2338.000000 1598.000000 567.000000 0 255 0
2345.000000 1590.000000 610.000000 0 255 0
2360.000000 1583.000000 567.000000 0 255 0
2343.000000 1584.000000 655.000000 0 255 0
2351.000000 1576.000000 611.000000 0 255 0
2360.000000 1569.000000 656.000000 0 255 0
2321.000000 1564.000000 610.000000 0 255 0
2315.000000 1551.000000 610.000000 0 255 0
2300.000000 1539.000000 610.000000 0 255 0
2363.000000 1595.000000 574.000000 0 255 0
2377.000000 1581.000000 574.000000 0 255 0
2329.000000 1598.000000 578.000000 0 255 0
2354.000000 1591.000000 623.000000 0 255 0
2364.000000 1582.000000 578.000000 0 255 0
2341.000000 1578.000000 623.000000 0 255 0
2334.000000 1565.000000 623.000000 0 255 0
2329.000000 1552.000000 623.000000 0 255 0
2327.000000 1539.000000 623.000000 0 255 0
2325.000000 1525.000000 623.000000 0 255 0
2301.000000 1659.000000 553.000000 0 255 0
2309.000000 1645.000000 553.000000 0 255 0
2334.000000 1596.000000 682.000000 0 255 0
2342.000000 1589.000000 552.000000 0 255 0
2340.000000 1588.000000 638.000000 0 255 0
2344.000000 1583.000000 594.000000 0 255 0
2340.000000 1582.000000 683.000000 0 255 0
2321.000000 1570.000000 682.000000 0 255 0
2332.000000 1562.000000 638.000000 0 255 0
2311.000000 1523.000000 637.000000 0 255 0
2278.000000 1548.000000 610.000000 0 255 0
2315.000000 1559.000000 610.000000 0 255 0
2313.000000 1573.000000 610.000000 0 255 0
2376.000000 1571.000000 701.000000 0 255 0
2342.000000 1577.000000 654.000000 0 255 0
2348.000000 1587.000000 699.000000 0 255 0
2355.000000 1590.000000 654.000000 0 255 0
2353.000000 1596.000000 547.000000 0 255 0
2349.000000 1590.000000 588.000000 0 255 0
2347.000000 1590.000000 677.000000 0 255 0
2335.000000 1583.000000 632.000000 0 255 0
2335.000000 1577.000000 677.000000 0 255 0
2329.000000 1570.000000 632.000000 0 255 0
2361.000000 1554.000000 633.000000 0 255 0
2322.000000 1543.000000 632.000000 0 255 0
2319.000000 1530.000000 632.000000 0 255 0
2321.000000 1593.000000 622.000000 0 255 0
2337.000000 1588.000000 578.000000 0 255 0
2349.000000 1586.000000 667.000000 0 255 0
2344.000000 1579.000000 622.000000 0 255 0
2326.000000 1574.000000 666.000000 0 255 0
2332.000000 1566.000000 622.000000 0 255 0
2320.000000 1553.000000 621.000000 0 255 0
2330.000000 1539.000000 621.000000 0 255 0
2309.000000 1527.000000 621.000000 0 255 0
2342.000000 1531.000000 642.000000 0 255 0
2340.000000 1545.000000 642.000000 0 255 0
2309.000000 1574.000000 641.000000 0 255 0
2336.000000 1580.000000 684.000000 0 255 0
2349.000000 1593.000000 684.000000 0 255 0
2358.000000 1597.000000 553.000000 0 255 0
2372.000000 1610.000000 553.000000 0 255 0
2364.000000 1571.000000 667.000000 0 255 0
2346.000000 1579.000000 710.000000 0 255 0
2339.000000 1587.000000 666.000000 0 255 0
2322.000000 1595.000000 708.000000 0 255 0
2291.000000 1521.000000 642.000000 0 255 0
2360.000000 1529.000000 644.000000 0 255 0
2350.000000 1544.000000 643.000000 0 255 0
2321.000000 1560.000000 642.000000 0 255 0
2331.000000 1569.000000 687.000000 0 255 0
2325.000000 1574.000000 642.000000 0 255 0
2344.000000 1582.000000 687.000000 0 255 0
2388.000000 1583.000000 643.000000 0 255 0
2366.000000 1592.000000 598.000000 0 255 0
2357.000000 1595.000000 687.000000 0 255 0
2302.000000 1663.000000 556.000000 0 255 0
2318.000000 1649.000000 556.000000 0 255 0
2324.000000 1608.000000 555.000000 0 255 0
2337.000000 1593.000000 555.000000 0 255 0
2304.000000 1526.000000 645.000000 0 255 0
2353.000000 1537.000000 646.000000 0 255 0
2372.000000 1550.000000 646.000000 0 255 0
2334.000000 1567.000000 645.000000 0 255 0
2364.000000 1572.000000 689.000000 0 255 0
2320.000000 1583.000000 644.000000 0 255 0
2351.000000 1587.000000 688.000000 0 255 0
2355.000000 1568.000000 676.000000 0 255 0
2338.000000 1584.000000 675.000000 0 255 0
2346.000000 1598.000000 676.000000 0 255 0
2293.000000 1667.000000 552.000000 0 255 0
2297.000000 1654.000000 552.000000 0 255 0
2353.000000 1638.000000 552.000000 0 255 0
2344.000000 1598.000000 552.000000 0 255 0
2350.000000 1589.000000 595.000000 0 255 0
2327.000000 1558.000000 640.000000 0 255 0
2331.000000 1545.000000 640.000000 0 255 0
2289.000000 1521.000000 638.000000 0 255 0
2344.000000 1519.000000 633.000000 0 255 0
2316.000000 1535.000000 632.000000 0 255 0
2331.000000 1547.000000 632.000000 0 255 0
2335.000000 1561.000000 631.000000 0 255 0
2367.000000 1572.000000 632.000000 0 255 0
2338.000000 1581.000000 674.000000 0 255 0
2351.000000 1587.000000 631.000000 0 255 0
2353.000000 1594.000000 674.000000 0 255 0
2348.000000 1599.000000 544.000000 0 255 0
2352.000000 1523.000000 647.000000 0 255 0
2315.000000 1540.000000 646.000000 0 255 0
2340.000000 1552.000000 647.000000 0 255 0
2351.000000 1572.000000 604.000000 0 255 0
2367.000000 1572.000000 692.000000 0 255 0
2366.000000 1577.000000 648.000000 0 255 0
2349.000000 1587.000000 691.000000 0 255 0
2351.000000 1591.000000 560.000000 0 255 0
2351.000000 1592.000000 647.000000 0 255 0
2328.000000 1605.000000 560.000000 0 255 0
2318.000000 1646.000000 560.000000 0 255 0
2312.000000 1660.000000 560.000000 0 255 0
2325.000000 1648.000000 569.000000 0 255 0
2349.000000 1592.000000 568.000000 0 255 0
2351.000000 1590.000000 657.000000 0 255 0
2349.000000 1583.000000 612.000000 0 255 0
2346.000000 1577.000000 657.000000 0 255 0
2327.000000 1557.000000 612.000000 0 255 0
2310.000000 1545.000000 611.000000 0 255 0
2301.000000 1532.000000 611.000000 0 255 0
2310.000000 1526.000000 633.000000 0 255 0
2312.000000 1539.000000 633.000000 0 255 0
2320.000000 1552.000000 633.000000 0 255 0
2350.000000 1564.000000 634.000000 0 255 0
2366.000000 1569.000000 679.000000 0 255 0
2347.000000 1578.000000 633.000000 0 255 0
2369.000000 1582.000000 589.000000 0 255 0
2349.000000 1584.000000 678.000000 0 255 0
2350.000000 1590.000000 547.000000 0 255 0
2345.000000 1592.000000 633.000000 0 255 0
2346.000000 1597.000000 589.000000 0 255 0
2353.000000 1597.000000 678.000000 0 255 0
2345.000000 1604.000000 547.000000 0 255 0
2353.000000 1589.000000 590.000000 0 255 0
2341.000000 1589.000000 678.000000 0 255 0
2336.000000 1582.000000 633.000000 0 255 0
2339.000000 1575.000000 678.000000 0 255 0
2329.000000 1569.000000 633.000000 0 255 0
2369.000000 1552.000000 634.000000 0 255 0
2325.000000 1542.000000 633.000000 0 255 0
2318.000000 1529.000000 632.000000 0 255 0
2314.000000 1516.000000 632.000000 0 255 0
2340.000000 1587.000000 698.000000 0 255 0
2340.000000 1523.000000 636.000000 0 255 0
2322.000000 1538.000000 635.000000 0 255 0
2331.000000 1551.000000 636.000000 0 255 0
2321.000000 1573.000000 679.000000 0 255 0
2316.000000 1579.000000 635.000000 0 255 0
2355.000000 1584.000000 593.000000 0 255 0
2344.000000 1585.000000 680.000000 0 255 0
2337.000000 1590.000000 549.000000 0 255 0
2319.000000 1599.000000 593.000000 0 255 0
2348.000000 1599.000000 680.000000 0 255 0
2335.000000 1603.000000 549.000000 0 255 0
2289.000000 1654.000000 551.000000 0 255 0
2343.000000 1598.000000 551.000000 0 255 0
2350.000000 1591.000000 592.000000 0 255 0
2347.000000 1590.000000 681.000000 0 255 0
2341.000000 1583.000000 636.000000 0 255 0
2341.000000 1577.000000 681.000000 0 255 0
2305.000000 1572.000000 635.000000 0 255 0
2324.000000 1565.000000 680.000000 0 255 0
2341.000000 1556.000000 636.000000 0 255 0
2357.000000 1541.000000 636.000000 0 255 0
2360.000000 1528.000000 636.000000 0 255 0
2316.000000 1518.000000 635.000000 0 255 0
2349.000000 1586.000000 577.000000 0 255 0
2300.000000 1530.000000 647.000000 0 255 0
2328.000000 1542.000000 647.000000 0 255 0
2317.000000 1556.000000 647.000000 0 255 0
2349.000000 1574.000000 692.000000 0 255 0
2340.000000 1582.000000 647.000000 0 255 0
2345.000000 1587.000000 603.000000 0 255 0
2351.000000 1588.000000 692.000000 0 255 0
2342.000000 1594.000000 561.000000 0 255 0
2344.000000 1595.000000 647.000000 0 255 0
2319.000000 1608.000000 561.000000 0 255 0
2319.000000 1649.000000 560.000000 0 255 0
2303.000000 1663.000000 560.000000 0 255 0
2288.000000 1553.000000 608.000000 0 255 0
2316.000000 1564.000000 609.000000 0 255 0
2330.000000 1577.000000 609.000000 0 255 0
2346.000000 1577.000000 698.000000 0 255 0
2339.000000 1584.000000 653.000000 0 255 0
2354.000000 1590.000000 699.000000 0 255 0
2323.000000 1652.000000 567.000000 0 255 0
2308.000000 1665.000000 567.000000 0 255 0
2348.000000 1573.000000 701.000000 0 255 0
2341.000000 1588.000000 701.000000 0 255 0
2293.000000 1646.000000 555.000000 0 255 0
2317.000000 1605.000000 555.000000 0 255 0
2331.000000 1665.000000 561.000000 0 255 0
2334.000000 1652.000000 561.000000 0 255 0
2312.000000 1666.000000 566.000000 0 255 0
2311.000000 1653.000000 566.000000 0 255 0
2348.000000 1638.000000 566.000000 0 255 0
2353.000000 1597.000000 566.000000 0 255 0
2361.000000 1591.000000 610.000000 0 255 0
2345.000000 1584.000000 566.000000 0 255 0
2372.000000 1577.000000 611.000000 0 255 0
2330.000000 1566.000000 610.000000 0 255 0
2303.000000 1555.000000 610.000000 0 255 0
2286.000000 1542.000000 609.000000 0 255 0
2362.000000 1592.000000 587.000000 0 255 0
2338.000000 1582.000000 659.000000 0 255 0
2350.000000 1586.000000 704.000000 0 255 0
2367.000000 1595.000000 660.000000 0 255 0
2307.000000 1547.000000 612.000000 0 255 0
2316.000000 1560.000000 612.000000 0 255 0
2327.000000 1573.000000 612.000000 0 255 0
2349.000000 1573.000000 701.000000 0 255 0
2326.000000 1586.000000 612.000000 0 255 0
2349.000000 1587.000000 701.000000 0 255 0
2342.000000 1592.000000 569.000000 0 255 0
2347.000000 1594.000000 656.000000 0 255 0
2316.000000 1648.000000 568.000000 0 255 0
2300.000000 1662.000000 568.000000 0 255 0
2297.000000 1524.000000 643.000000 0 255 0
2324.000000 1562.000000 643.000000 0 255 0
2336.000000 1567.000000 688.000000 0 255 0
2351.000000 1580.000000 688.000000 0 255 0
2329.000000 1589.000000 643.000000 0 255 0
2353.000000 1594.000000 689.000000 0 255 0
2335.000000 1601.000000 557.000000 0 255 0
2319.000000 1642.000000 557.000000 0 255 0
2297.000000 1656.000000 557.000000 0 255 0
2315.000000 1531.000000 649.000000 0 255 0
2322.000000 1544.000000 649.000000 0 255 0
2343.000000 1556.000000 649.000000 0 255 0
2324.000000 1562.000000 605.000000 0 255 0
2347.000000 1575.000000 605.000000 0 255 0
2343.000000 1576.000000 694.000000 0 255 0
2354.000000 1589.000000 694.000000 0 255 0
2335.000000 1596.000000 563.000000 0 255 0
2320.000000 1598.000000 648.000000 0 255 0
2309.000000 1651.000000 563.000000 0 255 0
2307.000000 1665.000000 563.000000 0 255 0
2318.000000 1531.000000 620.000000 0 255 0
2323.000000 1544.000000 620.000000 0 255 0
2333.000000 1557.000000 620.000000 0 255 0
2330.000000 1571.000000 619.000000 0 255 0
2341.000000 1572.000000 709.000000 0 255 0
2332.000000 1580.000000 663.000000 0 255 0
2355.000000 1583.000000 620.000000 0 255 0
2347.000000 1585.000000 709.000000 0 255 0
2355.000000 1590.000000 576.000000 0 255 0
2343.000000 1593.000000 663.000000 0 255 0
2300.000000 1647.000000 576.000000 0 255 0
2369.000000 1571.000000 693.000000 0 255 0
2343.000000 1588.000000 692.000000 0 255 0
2335.000000 1511.000000 630.000000 0 255 0
2320.000000 1526.000000 630.000000 0 255 0
2310.000000 1541.000000 629.000000 0 255 0
2315.000000 1554.000000 629.000000 0 255 0
2329.000000 1566.000000 630.000000 0 255 0
2345.000000 1572.000000 675.000000 0 255 0
2327.000000 1580.000000 629.000000 0 255 0
2358.000000 1583.000000 586.000000 0 255 0
2350.000000 1585.000000 675.000000 0 255 0
2371.000000 1590.000000 544.000000 0 255 0
2336.000000 1593.000000 630.000000 0 255 0
2352.000000 1597.000000 586.000000 0 255 0
2351.000000 1599.000000 675.000000 0 255 0
2343.000000 1605.000000 544.000000 0 255 0
2321.000000 1532.000000 618.000000 0 255 0
2327.000000 1559.000000 618.000000 0 255 0
2333.000000 1572.000000 618.000000 0 255 0
2347.000000 1570.000000 707.000000 0 255 0
2334.000000 1577.000000 661.000000 0 255 0
2352.000000 1584.000000 618.000000 0 255 0
2352.000000 1584.000000 707.000000 0 255 0
2352.000000 1589.000000 662.000000 0 255 0
2307.000000 1542.000000 630.000000 0 255 0
2315.000000 1555.000000 630.000000 0 255 0
2328.000000 1568.000000 630.000000 0 255 0
2333.000000 1574.000000 674.000000 0 255 0
2325.000000 1582.000000 630.000000 0 255 0
2359.000000 1585.000000 586.000000 0 255 0
2346.000000 1587.000000 675.000000 0 255 0
2348.000000 1594.000000 630.000000 0 255 0
2352.000000 1600.000000 675.000000 0 255 0
2306.000000 1543.000000 612.000000 0 255 0
2314.000000 1556.000000 612.000000 0 255 0
2340.000000 1568.000000 613.000000 0 255 0
2345.000000 1568.000000 700.000000 0 255 0
2374.000000 1572.000000 657.000000 0 255 0
2384.000000 1579.000000 613.000000 0 255 0
2342.000000 1582.000000 700.000000 0 255 0
2355.000000 1585.000000 568.000000 0 255 0
2339.000000 1587.000000 656.000000 0 255 0
2356.000000 1594.000000 613.000000 0 255 0
2338.000000 1596.000000 700.000000 0 255 0
2325.000000 1601.000000 568.000000 0 255 0
2354.000000 1640.000000 568.000000 0 255 0
2294.000000 1655.000000 568.000000 0 255 0
2301.000000 1669.000000 568.000000 0 255 0
2306.000000 1533.000000 644.000000 0 255 0
2325.000000 1545.000000 645.000000 0 255 0
2331.000000 1558.000000 645.000000 0 255 0
2316.000000 1567.000000 688.000000 0 255 0
2319.000000 1580.000000 602.000000 0 255 0
2337.000000 1579.000000 689.000000 0 255 0
2353.000000 1592.000000 690.000000 0 255 0
2281.000000 1653.000000 559.000000 0 255 0
2314.000000 1665.000000 559.000000 0 255 0
2310.000000 1654.000000 565.000000 0 255 0
2333.000000 1640.000000 565.000000 0 255 0
2342.000000 1599.000000 565.000000 0 255 0
2339.000000 1591.000000 608.000000 0 255 0
2339.000000 1585.000000 565.000000 0 255 0
2345.000000 1585.000000 653.000000 0 255 0
2345.000000 1577.000000 608.000000 0 255 0
2348.000000 1571.000000 653.000000 0 255 0
2313.000000 1566.000000 607.000000 0 255 0
2311.000000 1552.000000 607.000000 0 255 0
2349.000000 1599.000000 540.000000 0 255 0
2361.000000 1592.000000 582.000000 0 255 0
2348.000000 1591.000000 671.000000 0 255 0
2335.000000 1585.000000 625.000000 0 255 0
2342.000000 1578.000000 670.000000 0 255 0
2324.000000 1558.000000 625.000000 0 255 0
2322.000000 1545.000000 625.000000 0 255 0
2319.000000 1532.000000 624.000000 0 255 0
2319.000000 1518.000000 624.000000 0 255 0
2344.000000 1598.000000 550.000000 0 255 0
2349.000000 1592.000000 592.000000 0 255 0
2356.000000 1590.000000 681.000000 0 255 0
2348.000000 1584.000000 636.000000 0 255 0
2344.000000 1578.000000 681.000000 0 255 0
2355.000000 1569.000000 636.000000 0 255 0
2336.000000 1557.000000 635.000000 0 255 0
2304.000000 1522.000000 646.000000 0 255 0
2315.000000 1535.000000 646.000000 0 255 0
2316.000000 1548.000000 646.000000 0 255 0
2334.000000 1561.000000 646.000000 0 255 0
2312.000000 1569.000000 688.000000 0 255 0
2338.000000 1581.000000 688.000000 0 255 0
2387.000000 1585.000000 647.000000 0 255 0
2353.000000 1594.000000 689.000000 0 255 0
2371.000000 1598.000000 558.000000 0 255 0
2384.000000 1639.000000 557.000000 0 255 0
2295.000000 1655.000000 557.000000 0 255 0
2294.000000 1669.000000 557.000000 0 255 0
2318.000000 1530.000000 635.000000 0 255 0
2327.000000 1543.000000 635.000000 0 255 0
2332.000000 1557.000000 634.000000 0 255 0
2346.000000 1580.000000 679.000000 0 255 0
2354.000000 1583.000000 634.000000 0 255 0
2370.000000 1590.000000 591.000000 0 255 0
2351.000000 1593.000000 679.000000 0 255 0
2318.000000 1520.000000 620.000000 0 255 0
2310.000000 1534.000000 620.000000 0 255 0
2329.000000 1546.000000 620.000000 0 255 0
2323.000000 1560.000000 620.000000 0 255 0
2324.000000 1574.000000 619.000000 0 255 0
2337.000000 1582.000000 663.000000 0 255 0
2364.000000 1585.000000 620.000000 0 255 0
2357.000000 1588.000000 709.000000 0 255 0
2345.000000 1593.000000 576.000000 0 255 0
2353.000000 1595.000000 664.000000 0 255 0
2309.000000 1649.000000 576.000000 0 255 0
2356.000000 1598.000000 537.000000 0 255 0
2354.000000 1592.000000 579.000000 0 255 0
2352.000000 1591.000000 668.000000 0 255 0
2343.000000 1584.000000 623.000000 0 255 0
2341.000000 1578.000000 667.000000 0 255 0
2351.000000 1570.000000 623.000000 0 255 0
2328.000000 1558.000000 622.000000 0 255 0
2319.000000 1545.000000 622.000000 0 255 0
2322.000000 1531.000000 621.000000 0 255 0
2304.000000 1519.000000 621.000000 0 255 0
2292.000000 1523.000000 645.000000 0 255 0
2321.000000 1535.000000 646.000000 0 255 0
2324.000000 1562.000000 645.000000 0 255 0
2343.000000 1571.000000 690.000000 0 255 0
2305.000000 1584.000000 601.000000 0 255 0
2354.000000 1584.000000 691.000000 0 255 0
2379.000000 1587.000000 646.000000 0 255 0
2341.000000 1596.000000 601.000000 0 255 0
2351.000000 1598.000000 690.000000 0 255 0
2342.000000 1595.000000 575.000000 0 255 0
2376.000000 1592.000000 665.000000 0 255 0
2341.000000 1587.000000 619.000000 0 255 0
2346.000000 1581.000000 664.000000 0 255 0
2340.000000 1573.000000 619.000000 0 255 0
2327.000000 1561.000000 619.000000 0 255 0
2330.000000 1547.000000 619.000000 0 255 0
2318.000000 1535.000000 618.000000 0 255 0
2315.000000 1521.000000 618.000000 0 255 0
2311.000000 1527.000000 643.000000 0 255 0
2325.000000 1567.000000 643.000000 0 255 0
2334.000000 1572.000000 688.000000 0 255 0
2340.000000 1579.000000 643.000000 0 255 0
2357.000000 1583.000000 599.000000 0 255 0
2351.000000 1585.000000 688.000000 0 255 0
2345.000000 1591.000000 557.000000 0 255 0
2351.000000 1593.000000 643.000000 0 255 0
2362.000000 1599.000000 688.000000 0 255 0
2288.000000 1648.000000 557.000000 0 255 0
2325.000000 1658.000000 560.000000 0 255 0
2330.000000 1645.000000 560.000000 0 255 0
2351.000000 1589.000000 560.000000 0 255 0
2325.000000 1529.000000 637.000000 0 255 0
2327.000000 1543.000000 636.000000 0 255 0
2348.000000 1555.000000 637.000000 0 255 0
2334.000000 1570.000000 637.000000 0 255 0
2332.000000 1578.000000 681.000000 0 255 0
2332.000000 1583.000000 636.000000 0 255 0
2346.000000 1590.000000 594.000000 0 255 0
2346.000000 1591.000000 681.000000 0 255 0
2338.000000 1577.000000 667.000000 0 255 0
2360.000000 1583.000000 712.000000 0 255 0
2341.000000 1592.000000 667.000000 0 255 0
2312.000000 1574.000000 686.000000 0 255 0
2342.000000 1587.000000 687.000000 0 255 0
2313.000000 1529.000000 644.000000 0 255 0
2330.000000 1555.000000 644.000000 0 255 0
2316.000000 1570.000000 643.000000 0 255 0
2358.000000 1581.000000 644.000000 0 255 0
2351.000000 1586.000000 600.000000 0 255 0
2350.000000 1588.000000 689.000000 0 255 0
2351.000000 1593.000000 558.000000 0 255 0
2369.000000 1594.000000 645.000000 0 255 0
2329.000000 1608.000000 558.000000 0 255 0
2300.000000 1649.000000 557.000000 0 255 0
2289.000000 1663.000000 557.000000 0 255 0
2300.000000 1534.000000 617.000000 0 255 0
2317.000000 1547.000000 617.000000 0 255 0
2338.000000 1558.000000 618.000000 0 255 0
2336.000000 1572.000000 618.000000 0 255 0
2388.000000 1583.000000 618.000000 0 255 0
2356.000000 1585.000000 707.000000 0 255 0
2354.000000 1593.000000 662.000000 0 255 0
2325.000000 1648.000000 575.000000 0 255 0
2315.000000 1515.000000 629.000000 0 255 0
2322.000000 1528.000000 629.000000 0 255 0
2312.000000 1542.000000 628.000000 0 255 0
2319.000000 1555.000000 628.000000 0 255 0
2331.000000 1568.000000 629.000000 0 255 0
2338.000000 1574.000000 673.000000 0 255 0
2341.000000 1581.000000 629.000000 0 255 0
2348.000000 1586.000000 585.000000 0 255 0
2351.000000 1587.000000 674.000000 0 255 0
2350.000000 1593.000000 543.000000 0 255 0
2341.000000 1607.000000 543.000000 0 255 0
2349.000000 1600.000000 541.000000 0 255 0
2366.000000 1593.000000 585.000000 0 255 0
2293.000000 1522.000000 645.000000 0 255 0
2328.000000 1533.000000 646.000000 0 255 0
2321.000000 1547.000000 646.000000 0 255 0
2318.000000 1561.000000 645.000000 0 255 0
2338.000000 1580.000000 688.000000 0 255 0
2387.000000 1584.000000 647.000000 0 255 0
2352.000000 1593.000000 689.000000 0 255 0
2366.000000 1597.000000 558.000000 0 255 0
2353.000000 1611.000000 557.000000 0 255 0
2348.000000 1653.000000 557.000000 0 255 0
2310.000000 1667.000000 557.000000 0 255 0
2307.000000 1529.000000 628.000000 0 255 0
2313.000000 1542.000000 628.000000 0 255 0
2317.000000 1555.000000 628.000000 0 255 0
2322.000000 1568.000000 628.000000 0 255 0
2321.000000 1575.000000 672.000000 0 255 0
2335.000000 1581.000000 628.000000 0 255 0
2352.000000 1585.000000 584.000000 0 255 0
2346.000000 1587.000000 673.000000 0 255 0
2348.000000 1592.000000 542.000000 0 255 0
2312.000000 1598.000000 499.000000 0 255 0
2295.000000 1658.000000 554.000000 0 255 0
2283.000000 1645.000000 554.000000 0 255 0
2320.000000 1603.000000 553.000000 0 255 0
2337.000000 1595.000000 683.000000 0 255 0
2343.000000 1588.000000 553.000000 0 255 0
2346.000000 1587.000000 639.000000 0 255 0
2345.000000 1582.000000 595.000000 0 255 0
2342.000000 1581.000000 683.000000 0 255 0
2326.000000 1569.000000 683.000000 0 255 0
2341.000000 1561.000000 638.000000 0 255 0
2320.000000 1522.000000 638.000000 0 255 0
2309.000000 1528.000000 635.000000 0 255 0
2312.000000 1542.000000 635.000000 0 255 0
2318.000000 1555.000000 634.000000 0 255 0
2374.000000 1565.000000 636.000000 0 255 0
2340.000000 1574.000000 679.000000 0 255 0
2320.000000 1582.000000 634.000000 0 255 0
2373.000000 1584.000000 591.000000 0 255 0
2351.000000 1587.000000 680.000000 0 255 0
2344.000000 1592.000000 549.000000 0 255 0
2353.000000 1594.000000 635.000000 0 255 0
2344.000000 1601.000000 679.000000 0 255 0
2333.000000 1606.000000 549.000000 0 255 0
2356.000000 1594.000000 583.000000 0 255 0
2342.000000 1590.000000 540.000000 0 255 0
2343.000000 1589.000000 628.000000 0 255 0
2339.000000 1582.000000 583.000000 0 255 0
2325.000000 1577.000000 627.000000 0 255 0
2340.000000 1563.000000 628.000000 0 255 0
2332.000000 1550.000000 628.000000 0 255 0
2320.000000 1537.000000 627.000000 0 255 0
2320.000000 1524.000000 627.000000 0 255 0
2316.000000 1511.000000 627.000000 0 255 0
2363.000000 1580.000000 717.000000 0 255 0
2316.000000 1540.000000 646.000000 0 255 0
2325.000000 1553.000000 646.000000 0 255 0
2339.000000 1579.000000 646.000000 0 255 0
2345.000000 1587.000000 691.000000 0 255 0
2343.000000 1591.000000 560.000000 0 255 0
2322.000000 1606.000000 560.000000 0 255 0
2323.000000 1646.000000 560.000000 0 255 0
2310.000000 1660.000000 560.000000 0 255 0
2294.000000 1661.000000 568.000000 0 255 0
2307.000000 1647.000000 568.000000 0 255 0
2343.000000 1592.000000 568.000000 0 255 0
2318.000000 1648.000000 571.000000 0 255 0
2288.000000 1533.000000 649.000000 0 255 0
2295.000000 1546.000000 649.000000 0 255 0
2318.000000 1563.000000 606.000000 0 255 0
2339.000000 1575.000000 606.000000 0 255 0
2333.000000 1577.000000 695.000000 0 255 0
2371.000000 1582.000000 651.000000 0 255 0
2354.000000 1589.000000 696.000000 0 255 0
2370.000000 1596.000000 651.000000 0 255 0
2325.000000 1651.000000 564.000000 0 255 0
2309.000000 1665.000000 564.000000 0 255 0
2310.000000 1528.000000 628.000000 0 255 0
2313.000000 1541.000000 628.000000 0 255 0
2314.000000 1555.000000 628.000000 0 255 0
2321.000000 1568.000000 628.000000 0 255 0
2339.000000 1573.000000 673.000000 0 255 0
2336.000000 1580.000000 628.000000 0 255 0
2367.000000 1584.000000 584.000000 0 255 0
2350.000000 1586.000000 673.000000 0 255 0
2356.000000 1591.000000 542.000000 0 255 0
2307.000000 1596.000000 627.000000 0 255 0
2314.000000 1549.000000 612.000000 0 255 0
2308.000000 1563.000000 611.000000 0 255 0
2322.000000 1576.000000 611.000000 0 255 0
2337.000000 1577.000000 700.000000 0 255 0
2352.000000 1583.000000 656.000000 0 255 0
2346.000000 1590.000000 700.000000 0 255 0
2339.000000 1598.000000 655.000000 0 255 0
2315.000000 1651.000000 568.000000 0 255 0
2296.000000 1665.000000 568.000000 0 255 0
2286.000000 1523.000000 646.000000 0 255 0
2316.000000 1534.000000 647.000000 0 255 0
2325.000000 1547.000000 647.000000 0 255 0
2320.000000 1561.000000 646.000000 0 255 0
2346.000000 1566.000000 692.000000 0 255 0
