1361.000000 546.000000 607.000000 0 255 0
1348.000000 550.000000 642.000000 0 255 0
1345.000000 547.000000 610.000000 0 255 0
1339.000000 547.000000 644.000000 0 255 0
1331.000000 546.000000 612.000000 0 255 0
1331.000000 530.000000 840.000000 0 255 0
1355.000000 564.000000 675.000000 0 255 0
1373.000000 550.000000 711.000000 0 255 0
1375.000000 561.000000 679.000000 0 255 0
1377.000000 558.000000 713.000000 0 255 0
1357.000000 559.000000 780.000000 0 255 0
1367.000000 574.000000 715.000000 0 255 0
1340.000000 530.000000 605.000000 0 255 0
1368.000000 528.000000 606.000000 0 255 0
1348.000000 547.000000 640.000000 0 255 0
1387.000000 533.000000 608.000000 0 255 0
1371.000000 549.000000 642.000000 0 255 0
1396.000000 543.000000 609.000000 0 255 0
1373.000000 550.000000 677.000000 0 255 0
1389.000000 554.000000 643.000000 0 255 0
1415.000000 548.000000 610.000000 0 255 0
1400.000000 549.000000 679.000000 0 255 0
1405.000000 561.000000 645.000000 0 255 0
1403.000000 561.000000 617.000000 0 255 0
1399.000000 558.000000 652.000000 0 255 0
1390.000000 554.000000 618.000000 0 255 0
1365.000000 554.000000 619.000000 0 255 0
1339.000000 555.000000 620.000000 0 255 0
1385.000000 561.000000 628.000000 0 255 0
1387.000000 555.000000 664.000000 0 255 0
1374.000000 556.000000 630.000000 0 255 0
1397.000000 536.000000 598.000000 0 255 0
1369.000000 554.000000 665.000000 0 255 0
1361.000000 553.000000 632.000000 0 255 0
1379.000000 536.000000 600.000000 0 255 0
1353.000000 553.000000 667.000000 0 255 0
1344.000000 552.000000 634.000000 0 255 0
1358.000000 538.000000 603.000000 0 255 0
1342.000000 548.000000 669.000000 0 255 0
1324.000000 554.000000 636.000000 0 255 0
1347.000000 534.000000 605.000000 0 255 0
1370.000000 554.000000 747.000000 0 255 0
1348.000000 566.000000 780.000000 0 255 0
1395.000000 573.000000 613.000000 0 255 0
1403.000000 562.000000 648.000000 0 255 0
1392.000000 559.000000 614.000000 0 255 0
1384.000000 558.000000 649.000000 0 255 0
1377.000000 553.000000 615.000000 0 255 0
1360.000000 558.000000 650.000000 0 255 0
1355.000000 551.000000 616.000000 0 255 0
1349.000000 549.000000 651.000000 0 255 0
1330.000000 552.000000 617.000000 0 255 0
1351.000000 551.000000 649.000000 0 255 0
1370.000000 553.000000 617.000000 0 255 0
1368.000000 558.000000 650.000000 0 255 0
1390.000000 557.000000 618.000000 0 255 0
1378.000000 557.000000 686.000000 0 255 0
1399.000000 556.000000 652.000000 0 255 0
1388.000000 553.000000 722.000000 0 255 0
1409.000000 563.000000 619.000000 0 255 0
1400.000000 561.000000 687.000000 0 255 0
1371.000000 587.000000 648.000000 0 255 0
1400.000000 559.000000 616.000000 0 255 0
1391.000000 559.000000 651.000000 0 255 0
1380.000000 556.000000 617.000000 0 255 0
1367.000000 558.000000 651.000000 0 255 0
1360.000000 553.000000 618.000000 0 255 0
1348.000000 555.000000 652.000000 0 255 0
1336.000000 553.000000 619.000000 0 255 0
1314.000000 552.000000 620.000000 0 255 0
1394.000000 556.000000 611.000000 0 255 0
1373.000000 552.000000 612.000000 0 255 0
1354.000000 548.000000 613.000000 0 255 0
1329.000000 548.000000 613.000000 0 255 0
1389.000000 567.000000 615.000000 0 255 0
1391.000000 561.000000 650.000000 0 255 0
1381.000000 561.000000 617.000000 0 255 0
1381.000000 556.000000 652.000000 0 255 0
1376.000000 553.000000 620.000000 0 255 0
1369.000000 553.000000 654.000000 0 255 0
1357.000000 554.000000 622.000000 0 255 0
1348.000000 555.000000 656.000000 0 255 0
1344.000000 552.000000 624.000000 0 255 0
1343.000000 548.000000 659.000000 0 255 0
1330.000000 551.000000 626.000000 0 255 0
1379.000000 504.000000 598.000000 0 255 0
1326.000000 533.000000 840.000000 0 255 0
1367.000000 553.000000 746.000000 0 255 0
1381.000000 558.000000 715.000000 0 255 0
1347.000000 566.000000 780.000000 0 255 0
1378.000000 558.000000 749.000000 0 255 0
1338.000000 551.000000 616.000000 0 255 0
1362.000000 551.000000 618.000000 0 255 0
1372.000000 547.000000 653.000000 0 255 0
1384.000000 553.000000 619.000000 0 255 0
1386.000000 555.000000 655.000000 0 255 0
1413.000000 554.000000 657.000000 0 255 0
1363.000000 561.000000 672.000000 0 255 0
1307.000000 588.000000 769.000000 0 255 0
1396.000000 558.000000 674.000000 0 255 0
1385.000000 555.000000 744.000000 0 255 0
1398.000000 559.000000 709.000000 0 255 0
1337.000000 587.000000 772.000000 0 255 0
1320.000000 552.000000 618.000000 0 255 0
1348.000000 552.000000 619.000000 0 255 0
1355.000000 554.000000 654.000000 0 255 0
1373.000000 553.000000 620.000000 0 255 0
1348.000000 550.000000 758.000000 0 255 0
1381.000000 555.000000 656.000000 0 255 0
1372.000000 551.000000 724.000000 0 255 0
1395.000000 557.000000 621.000000 0 255 0
1388.000000 554.000000 690.000000 0 255 0
1376.000000 550.000000 760.000000 0 255 0
1407.000000 556.000000 657.000000 0 255 0
1390.000000 558.000000 725.000000 0 255 0
1386.000000 562.000000 761.000000 0 255 0
1405.000000 559.000000 626.000000 0 255 0
1385.000000 555.000000 626.000000 0 255 0
1358.000000 556.000000 627.000000 0 255 0
1340.000000 551.000000 628.000000 0 255 0
1315.000000 552.000000 628.000000 0 255 0
1325.000000 543.000000 620.000000 0 255 0
1342.000000 545.000000 622.000000 0 255 0
1358.000000 549.000000 625.000000 0 255 0
1377.000000 551.000000 627.000000 0 255 0
1398.000000 552.000000 629.000000 0 255 0
1311.000000 545.000000 614.000000 0 255 0
1332.000000 544.000000 616.000000 0 255 0
1348.000000 545.000000 619.000000 0 255 0
1361.000000 550.000000 621.000000 0 255 0
1377.000000 552.000000 624.000000 0 255 0
1400.000000 550.000000 626.000000 0 255 0
1415.000000 554.000000 629.000000 0 255 0
1379.000000 498.000000 826.000000 0 255 0
1345.000000 560.000000 645.000000 0 255 0
1370.000000 562.000000 646.000000 0 255 0
1371.000000 553.000000 716.000000 0 255 0
1337.000000 563.000000 782.000000 0 255 0
1384.000000 556.000000 681.000000 0 255 0
1403.000000 560.000000 648.000000 0 255 0
1400.000000 552.000000 718.000000 0 255 0
1367.000000 585.000000 680.000000 0 255 0
1397.000000 557.000000 752.000000 0 255 0
1323.000000 551.000000 617.000000 0 255 0
1347.000000 551.000000 619.000000 0 255 0
1372.000000 550.000000 621.000000 0 255 0
1377.000000 550.000000 656.000000 0 255 0
1388.000000 556.000000 622.000000 0 255 0
1401.000000 551.000000 658.000000 0 255 0
1410.000000 558.000000 624.000000 0 255 0
1325.000000 547.000000 632.000000 0 255 0
1376.000000 523.000000 601.000000 0 255 0
1341.000000 547.000000 635.000000 0 255 0
1377.000000 532.000000 603.000000 0 255 0
1361.000000 544.000000 638.000000 0 255 0
1388.000000 536.000000 606.000000 0 255 0
1367.000000 551.000000 641.000000 0 255 0
1391.000000 545.000000 609.000000 0 255 0
1388.000000 549.000000 644.000000 0 255 0
1398.000000 552.000000 611.000000 0 255 0
1404.000000 559.000000 613.000000 0 255 0
1372.000000 581.000000 647.000000 0 255 0
1369.000000 557.000000 670.000000 0 255 0
1382.000000 550.000000 705.000000 0 255 0
1395.000000 558.000000 671.000000 0 255 0
1384.000000 555.000000 741.000000 0 255 0
1398.000000 559.000000 706.000000 0 255 0
1332.000000 590.000000 769.000000 0 255 0
1333.000000 534.000000 606.000000 0 255 0
1324.000000 543.000000 641.000000 0 255 0
1355.000000 535.000000 608.000000 0 255 0
1344.000000 545.000000 643.000000 0 255 0
1369.000000 542.000000 610.000000 0 255 0
1359.000000 551.000000 644.000000 0 255 0
1377.000000 552.000000 611.000000 0 255 0
1385.000000 550.000000 647.000000 0 255 0
1396.000000 556.000000 613.000000 0 255 0
1406.000000 553.000000 648.000000 0 255 0
1395.000000 572.000000 614.000000 0 255 0
1360.000000 583.000000 662.000000 0 255 0
1391.000000 556.000000 631.000000 0 255 0
1386.000000 554.000000 666.000000 0 255 0
1374.000000 555.000000 632.000000 0 255 0
1395.000000 536.000000 600.000000 0 255 0
1369.000000 553.000000 667.000000 0 255 0
1361.000000 551.000000 634.000000 0 255 0
1370.000000 540.000000 602.000000 0 255 0
1338.000000 554.000000 636.000000 0 255 0
1357.000000 536.000000 605.000000 0 255 0
1323.000000 553.000000 638.000000 0 255 0
1330.000000 543.000000 607.000000 0 255 0
1372.000000 553.000000 757.000000 0 255 0
1383.000000 558.000000 760.000000 0 255 0
1401.000000 565.000000 616.000000 0 255 0
1395.000000 563.000000 651.000000 0 255 0
1386.000000 559.000000 617.000000 0 255 0
1377.000000 559.000000 651.000000 0 255 0
1372.000000 552.000000 618.000000 0 255 0
1357.000000 556.000000 652.000000 0 255 0
1340.000000 558.000000 618.000000 0 255 0
1340.000000 552.000000 653.000000 0 255 0
1323.000000 553.000000 620.000000 0 255 0
1415.000000 556.000000 601.000000 0 255 0
1391.000000 564.000000 635.000000 0 255 0
1390.000000 560.000000 670.000000 0 255 0
1379.000000 558.000000 637.000000 0 255 0
1387.000000 546.000000 604.000000 0 255 0
1372.000000 557.000000 672.000000 0 255 0
1366.000000 553.000000 639.000000 0 255 0
1369.000000 545.000000 606.000000 0 255 0
1353.000000 556.000000 673.000000 0 255 0
1342.000000 555.000000 640.000000 0 255 0
1341.000000 550.000000 608.000000 0 255 0
1324.000000 554.000000 641.000000 0 255 0
1352.000000 543.000000 789.000000 0 255 0
1331.000000 542.000000 617.000000 0 255 0
1348.000000 543.000000 619.000000 0 255 0
1361.000000 547.000000 622.000000 0 255 0
1374.000000 552.000000 624.000000 0 255 0
1397.000000 550.000000 627.000000 0 255 0
1393.000000 571.000000 634.000000 0 255 0
1393.000000 566.000000 669.000000 0 255 0
1392.000000 558.000000 636.000000 0 255 0
1401.000000 545.000000 603.000000 0 255 0
1383.000000 557.000000 670.000000 0 255 0
1375.000000 555.000000 637.000000 0 255 0
1386.000000 541.000000 604.000000 0 255 0
1363.000000 557.000000 671.000000 0 255 0
1354.000000 554.000000 638.000000 0 255 0
1355.000000 547.000000 606.000000 0 255 0
1332.000000 555.000000 639.000000 0 255 0
1327.000000 551.000000 607.000000 0 255 0
1366.000000 513.000000 816.000000 0 255 0
1392.000000 562.000000 622.000000 0 255 0
1392.000000 558.000000 658.000000 0 255 0
1379.000000 560.000000 624.000000 0 255 0
1380.000000 554.000000 660.000000 0 255 0
1374.000000 551.000000 627.000000 0 255 0
1363.000000 554.000000 661.000000 0 255 0
1355.000000 552.000000 629.000000 0 255 0
1338.000000 552.000000 631.000000 0 255 0
1370.000000 526.000000 600.000000 0 255 0
1322.000000 552.000000 633.000000 0 255 0
1336.000000 537.000000 602.000000 0 255 0
1344.000000 527.000000 601.000000 0 255 0
1343.000000 535.000000 604.000000 0 255 0
1351.000000 538.000000 607.000000 0 255 0
1334.000000 552.000000 642.000000 0 255 0
1355.000000 544.000000 610.000000 0 255 0
1344.000000 553.000000 645.000000 0 255 0
1353.000000 553.000000 613.000000 0 255 0
1354.000000 554.000000 648.000000 0 255 0
1372.000000 549.000000 616.000000 0 255 0
1370.000000 553.000000 652.000000 0 255 0
1378.000000 554.000000 619.000000 0 255 0
1372.000000 551.000000 686.000000 0 255 0
1354.000000 552.000000 753.000000 0 255 0
1383.000000 553.000000 655.000000 0 255 0
1394.000000 553.000000 622.000000 0 255 0
1385.000000 552.000000 689.000000 0 255 0
1366.000000 553.000000 757.000000 0 255 0
1397.000000 553.000000 658.000000 0 255 0
1381.000000 554.000000 724.000000 0 255 0
1404.000000 556.000000 625.000000 0 255 0
1395.000000 555.000000 692.000000 0 255 0
1373.000000 557.000000 760.000000 0 255 0
1375.000000 577.000000 659.000000 0 255 0
1382.000000 563.000000 727.000000 0 255 0
1338.000000 588.000000 758.000000 0 255 0
1320.000000 573.000000 762.000000 0 255 0
1334.000000 583.000000 763.000000 0 255 0
1392.000000 563.000000 734.000000 0 255 0
1389.000000 564.000000 615.000000 0 255 0
1392.000000 558.000000 650.000000 0 255 0
1380.000000 559.000000 617.000000 0 255 0
1375.000000 551.000000 619.000000 0 255 0
1363.000000 554.000000 654.000000 0 255 0
1360.000000 550.000000 622.000000 0 255 0
1343.000000 550.000000 624.000000 0 255 0
1340.000000 548.000000 658.000000 0 255 0
1362.000000 512.000000 598.000000 0 255 0
1353.000000 561.000000 711.000000 0 255 0
1380.000000 552.000000 750.000000 0 255 0
1384.000000 563.000000 718.000000 0 255 0
1370.000000 570.000000 751.000000 0 255 0
1387.000000 580.000000 612.000000 0 255 0
1404.000000 564.000000 647.000000 0 255 0
1394.000000 559.000000 613.000000 0 255 0
1387.000000 558.000000 648.000000 0 255 0
1380.000000 553.000000 614.000000 0 255 0
1368.000000 555.000000 649.000000 0 255 0
1356.000000 553.000000 615.000000 0 255 0
1343.000000 555.000000 649.000000 0 255 0
1329.000000 554.000000 616.000000 0 255 0
1351.000000 551.000000 628.000000 0 255 0
1352.000000 557.000000 663.000000 0 255 0
1377.000000 552.000000 629.000000 0 255 0
1362.000000 554.000000 697.000000 0 255 0
1382.000000 556.000000 665.000000 0 255 0
1395.000000 558.000000 630.000000 0 255 0
1387.000000 555.000000 699.000000 0 255 0
1413.000000 554.000000 666.000000 0 255 0
1390.000000 559.000000 734.000000 0 255 0
1331.000000 598.000000 764.000000 0 255 0
1415.000000 560.000000 610.000000 0 255 0
1398.000000 554.000000 610.000000 0 255 0
1373.000000 553.000000 611.000000 0 255 0
1353.000000 549.000000 611.000000 0 255 0
1329.000000 548.000000 612.000000 0 255 0
1400.000000 557.000000 636.000000 0 255 0
1377.000000 555.000000 637.000000 0 255 0
1377.000000 544.000000 603.000000 0 255 0
1360.000000 550.000000 638.000000 0 255 0
1367.000000 535.000000 605.000000 0 255 0
1334.000000 550.000000 638.000000 0 255 0
1336.000000 539.000000 605.000000 0 255 0
1329.000000 552.000000 629.000000 0 255 0
1352.000000 554.000000 630.000000 0 255 0
1366.000000 551.000000 665.000000 0 255 0
1385.000000 550.000000 632.000000 0 255 0
1372.000000 550.000000 701.000000 0 255 0
1386.000000 555.000000 667.000000 0 255 0
1407.000000 554.000000 633.000000 0 255 0
1393.000000 553.000000 703.000000 0 255 0
1411.000000 557.000000 669.000000 0 255 0
1319.000000 544.000000 620.000000 0 255 0
1336.000000 543.000000 623.000000 0 255 0
1352.000000 544.000000 626.000000 0 255 0
1365.000000 547.000000 629.000000 0 255 0
1382.000000 548.000000 631.000000 0 255 0
1397.000000 550.000000 634.000000 0 255 0
1409.000000 555.000000 637.000000 0 255 0
1381.000000 554.000000 742.000000 0 255 0
1398.000000 560.000000 709.000000 0 255 0
1335.000000 588.000000 773.000000 0 255 0
1327.000000 548.000000 630.000000 0 255 0
1348.000000 545.000000 633.000000 0 255 0
1381.000000 532.000000 601.000000 0 255 0
1361.000000 547.000000 636.000000 0 255 0
1398.000000 532.000000 604.000000 0 255 0
1372.000000 550.000000 639.000000 0 255 0
1404.000000 539.000000 607.000000 0 255 0
1388.000000 551.000000 642.000000 0 255 0
1403.000000 563.000000 611.000000 0 255 0
1318.000000 550.000000 620.000000 0 255 0
1338.000000 552.000000 622.000000 0 255 0
1357.000000 543.000000 658.000000 0 255 0
1365.000000 551.000000 624.000000 0 255 0
1369.000000 551.000000 659.000000 0 255 0
1385.000000 554.000000 626.000000 0 255 0
1391.000000 553.000000 661.000000 0 255 0
1401.000000 561.000000 627.000000 0 255 0
1406.000000 560.000000 662.000000 0 255 0
1367.000000 517.000000 601.000000 0 255 0
1363.000000 535.000000 603.000000 0 255 0
1350.000000 547.000000 637.000000 0 255 0
1378.000000 541.000000 604.000000 0 255 0
1366.000000 551.000000 639.000000 0 255 0
1403.000000 540.000000 606.000000 0 255 0
1386.000000 554.000000 641.000000 0 255 0
1417.000000 547.000000 608.000000 0 255 0
1324.000000 549.000000 625.000000 0 255 0
1334.000000 551.000000 629.000000 0 255 0
1351.000000 548.000000 632.000000 0 255 0
1387.000000 531.000000 600.000000 0 255 0
1357.000000 544.000000 667.000000 0 255 0
1367.000000 547.000000 635.000000 0 255 0
1394.000000 536.000000 603.000000 0 255 0
1360.000000 552.000000 670.000000 0 255 0
1378.000000 550.000000 638.000000 0 255 0
1397.000000 544.000000 606.000000 0 255 0
1374.000000 552.000000 673.000000 0 255 0
1386.000000 554.000000 641.000000 0 255 0
1405.000000 549.000000 609.000000 0 255 0
1394.000000 549.000000 677.000000 0 255 0
1396.000000 557.000000 644.000000 0 255 0
1403.000000 560.000000 611.000000 0 255 0
1399.000000 556.000000 680.000000 0 255 0
1372.000000 587.000000 655.000000 0 255 0
1400.000000 560.000000 623.000000 0 255 0
1392.000000 559.000000 658.000000 0 255 0
1392.000000 550.000000 625.000000 0 255 0
1371.000000 558.000000 659.000000 0 255 0
1364.000000 553.000000 625.000000 0 255 0
1350.000000 556.000000 659.000000 0 255 0
1339.000000 554.000000 626.000000 0 255 0
1324.000000 551.000000 629.000000 0 255 0
1349.000000 550.000000 631.000000 0 255 0
1355.000000 549.000000 666.000000 0 255 0
1374.000000 551.000000 633.000000 0 255 0
1375.000000 553.000000 668.000000 0 255 0
1390.000000 557.000000 634.000000 0 255 0
1397.000000 555.000000 670.000000 0 255 0
1393.000000 571.000000 635.000000 0 255 0
1363.000000 532.000000 797.000000 0 255 0
1318.000000 543.000000 616.000000 0 255 0
1337.000000 544.000000 619.000000 0 255 0
1355.000000 544.000000 622.000000 0 255 0
1363.000000 551.000000 624.000000 0 255 0
1386.000000 550.000000 627.000000 0 255 0
1406.000000 550.000000 629.000000 0 255 0
1389.000000 574.000000 630.000000 0 255 0
1356.000000 553.000000 784.000000 0 255 0
1385.000000 558.000000 744.000000 0 255 0
1339.000000 588.000000 774.000000 0 255 0
1333.000000 546.000000 620.000000 0 255 0
1350.000000 546.000000 622.000000 0 255 0
1363.000000 550.000000 625.000000 0 255 0
1380.000000 551.000000 628.000000 0 255 0
1397.000000 552.000000 630.000000 0 255 0
1406.000000 560.000000 632.000000 0 255 0
1396.000000 569.000000 630.000000 0 255 0
1401.000000 560.000000 666.000000 0 255 0
1389.000000 558.000000 632.000000 0 255 0
1382.000000 558.000000 667.000000 0 255 0
1375.000000 553.000000 633.000000 0 255 0
1386.000000 539.000000 601.000000 0 255 0
1361.000000 556.000000 668.000000 0 255 0
1353.000000 553.000000 635.000000 0 255 0
1368.000000 536.000000 602.000000 0 255 0
1345.000000 552.000000 669.000000 0 255 0
1331.000000 553.000000 636.000000 0 255 0
1345.000000 537.000000 604.000000 0 255 0
1330.000000 552.000000 629.000000 0 255 0
1396.000000 515.000000 600.000000 0 255 0
1339.000000 554.000000 632.000000 0 255 0
1384.000000 532.000000 603.000000 0 255 0
1354.000000 552.000000 636.000000 0 255 0
1394.000000 534.000000 606.000000 0 255 0
1362.000000 548.000000 671.000000 0 255 0
1365.000000 554.000000 639.000000 0 255 0
1396.000000 541.000000 608.000000 0 255 0
1373.000000 550.000000 674.000000 0 255 0
1380.000000 553.000000 642.000000 0 255 0
1399.000000 549.000000 611.000000 0 255 0
1377.000000 556.000000 677.000000 0 255 0
1395.000000 553.000000 645.000000 0 255 0
1381.000000 553.000000 713.000000 0 255 0
1404.000000 555.000000 614.000000 0 255 0
1388.000000 558.000000 680.000000 0 255 0
1396.000000 561.000000 648.000000 0 255 0
1319.000000 552.000000 627.000000 0 255 0
1349.000000 548.000000 629.000000 0 255 0
1368.000000 552.000000 630.000000 0 255 0
1372.000000 552.000000 666.000000 0 255 0
1388.000000 556.000000 632.000000 0 255 0
1400.000000 551.000000 668.000000 0 255 0
1404.000000 561.000000 633.000000 0 255 0
1320.000000 551.000000 617.000000 0 255 0
1332.000000 552.000000 620.000000 0 255 0
1348.000000 550.000000 623.000000 0 255 0
1366.000000 549.000000 626.000000 0 255 0
1365.000000 550.000000 662.000000 0 255 0
1377.000000 551.000000 629.000000 0 255 0
1377.000000 552.000000 665.000000 0 255 0
1388.000000 554.000000 632.000000 0 255 0
1392.000000 552.000000 668.000000 0 255 0
1401.000000 556.000000 635.000000 0 255 0
1391.000000 563.000000 670.000000 0 255 0
1356.000000 559.000000 659.000000 0 255 0
1370.000000 553.000000 694.000000 0 255 0
1354.000000 553.000000 762.000000 0 255 0
1384.000000 559.000000 660.000000 0 255 0
1373.000000 556.000000 729.000000 0 255 0
1396.000000 554.000000 695.000000 0 255 0
1363.000000 565.000000 762.000000 0 255 0
1383.000000 578.000000 660.000000 0 255 0
1388.000000 566.000000 730.000000 0 255 0
1395.000000 514.000000 599.000000 0 255 0
1359.000000 529.000000 602.000000 0 255 0
1340.000000 534.000000 604.000000 0 255 0
1312.000000 550.000000 616.000000 0 255 0
1348.000000 549.000000 626.000000 0 255 0
1341.000000 556.000000 661.000000 0 255 0
1361.000000 550.000000 629.000000 0 255 0
1356.000000 555.000000 664.000000 0 255 0
1365.000000 556.000000 632.000000 0 255 0
1355.000000 555.000000 698.000000 0 255 0
1372.000000 553.000000 668.000000 0 255 0
1377.000000 557.000000 635.000000 0 255 0
1372.000000 553.000000 702.000000 0 255 0
1414.000000 543.000000 604.000000 0 255 0
1383.000000 555.000000 671.000000 0 255 0
1377.000000 549.000000 738.000000 0 255 0
1393.000000 556.000000 638.000000 0 255 0
1388.000000 551.000000 705.000000 0 255 0
1324.000000 581.000000 768.000000 0 255 0
1414.000000 552.000000 607.000000 0 255 0
1394.000000 557.000000 674.000000 0 255 0
1380.000000 556.000000 741.000000 0 255 0
1393.000000 566.000000 640.000000 0 255 0
1386.000000 562.000000 708.000000 0 255 0
1330.000000 585.000000 771.000000 0 255 0
1320.000000 550.000000 615.000000 0 255 0
1332.000000 551.000000 618.000000 0 255 0
1341.000000 546.000000 653.000000 0 255 0
1349.000000 550.000000 621.000000 0 255 0
1348.000000 551.000000 656.000000 0 255 0
1365.000000 549.000000 624.000000 0 255 0
1365.000000 549.000000 659.000000 0 255 0
1380.000000 549.000000 627.000000 0 255 0
1376.000000 552.000000 662.000000 0 255 0
1386.000000 555.000000 630.000000 0 255 0
1387.000000 555.000000 665.000000 0 255 0
1402.000000 555.000000 633.000000 0 255 0
1396.000000 560.000000 668.000000 0 255 0
1393.000000 571.000000 633.000000 0 255 0
1396.000000 564.000000 669.000000 0 255 0
1387.000000 561.000000 635.000000 0 255 0
1406.000000 542.000000 603.000000 0 255 0
1380.000000 559.000000 670.000000 0 255 0
1375.000000 554.000000 637.000000 0 255 0
1378.000000 545.000000 604.000000 0 255 0
1363.000000 556.000000 671.000000 0 255 0
1355.000000 553.000000 638.000000 0 255 0
1360.000000 543.000000 606.000000 0 255 0
1343.000000 555.000000 672.000000 0 255 0
1331.000000 548.000000 607.000000 0 255 0
1347.000000 549.000000 620.000000 0 255 0
1347.000000 556.000000 655.000000 0 255 0
1370.000000 552.000000 621.000000 0 255 0
1345.000000 549.000000 759.000000 0 255 0
1378.000000 554.000000 657.000000 0 255 0
1388.000000 558.000000 622.000000 0 255 0
1404.000000 555.000000 658.000000 0 255 0
1381.000000 560.000000 726.000000 0 255 0
1403.000000 567.000000 623.000000 0 255 0
1396.000000 564.000000 692.000000 0 255 0
1382.000000 561.000000 762.000000 0 255 0
1367.000000 579.000000 662.000000 0 255 0
1387.000000 559.000000 630.000000 0 255 0
1384.000000 556.000000 665.000000 0 255 0
1373.000000 555.000000 632.000000 0 255 0
1399.000000 534.000000 600.000000 0 255 0
1366.000000 555.000000 667.000000 0 255 0
1360.000000 552.000000 634.000000 0 255 0
1375.000000 537.000000 602.000000 0 255 0
1348.000000 554.000000 668.000000 0 255 0
1341.000000 553.000000 636.000000 0 255 0
1353.000000 539.000000 604.000000 0 255 0
1332.000000 542.000000 606.000000 0 255 0
1357.000000 549.000000 784.000000 0 255 0
1383.000000 559.000000 756.000000 0 255 0
1453.000000 493.000000 912.000000 0 255 0
1381.000000 496.000000 810.000000 0 255 0
1350.000000 559.000000 665.000000 0 255 0
1369.000000 549.000000 700.000000 0 255 0
1376.000000 561.000000 666.000000 0 255 0
1388.000000 556.000000 701.000000 0 255 0
1321.000000 588.000000 764.000000 0 255 0
1407.000000 560.000000 668.000000 0 255 0
1320.000000 544.000000 622.000000 0 255 0
1336.000000 544.000000 625.000000 0 255 0
1350.000000 546.000000 628.000000 0 255 0
1361.000000 550.000000 630.000000 0 255 0
1379.000000 550.000000 633.000000 0 255 0
1396.000000 550.000000 636.000000 0 255 0
1407.000000 555.000000 638.000000 0 255 0
1403.000000 564.000000 608.000000 0 255 0
1406.000000 556.000000 644.000000 0 255 0
1387.000000 557.000000 609.000000 0 255 0
1378.000000 558.000000 644.000000 0 255 0
1370.000000 552.000000 610.000000 0 255 0
1355.000000 557.000000 644.000000 0 255 0
1343.000000 554.000000 611.000000 0 255 0
1322.000000 552.000000 612.000000 0 255 0
1357.000000 555.000000 744.000000 0 255 0
1314.000000 584.000000 773.000000 0 255 0
1350.000000 579.000000 777.000000 0 255 0
1335.000000 533.000000 607.000000 0 255 0
1357.000000 536.000000 609.000000 0 255 0
1346.000000 548.000000 643.000000 0 255 0
1371.000000 543.000000 610.000000 0 255 0
1370.000000 549.000000 644.000000 0 255 0
1389.000000 548.000000 611.000000 0 255 0
1372.000000 551.000000 680.000000 0 255 0
1386.000000 556.000000 646.000000 0 255 0
1402.000000 556.000000 612.000000 0 255 0
1398.000000 551.000000 682.000000 0 255 0
1405.000000 561.000000 647.000000 0 255 0
1300.000000 549.000000 591.000000 0 255 0
1373.000000 523.000000 601.000000 0 255 0
1372.000000 531.000000 604.000000 0 255 0
1380.000000 535.000000 607.000000 0 255 0
1353.000000 553.000000 640.000000 0 255 0
1376.000000 546.000000 610.000000 0 255 0
1361.000000 549.000000 676.000000 0 255 0
1364.000000 554.000000 643.000000 0 255 0
1381.000000 551.000000 612.000000 0 255 0
1372.000000 551.000000 679.000000 0 255 0
1379.000000 554.000000 646.000000 0 255 0
1393.000000 552.000000 615.000000 0 255 0
1380.000000 554.000000 682.000000 0 255 0
1394.000000 553.000000 649.000000 0 255 0
1384.000000 551.000000 718.000000 0 255 0
1404.000000 555.000000 618.000000 0 255 0
1391.000000 556.000000 685.000000 0 255 0
1400.000000 558.000000 652.000000 0 255 0
1392.000000 555.000000 721.000000 0 255 0
1333.000000 545.000000 621.000000 0 255 0
1354.000000 543.000000 623.000000 0 255 0
1362.000000 550.000000 626.000000 0 255 0
1379.000000 551.000000 628.000000 0 255 0
1395.000000 553.000000 631.000000 0 255 0
1408.000000 557.000000 634.000000 0 255 0
1348.000000 556.000000 663.000000 0 255 0
1371.000000 553.000000 629.000000 0 255 0
1378.000000 555.000000 665.000000 0 255 0
1392.000000 557.000000 630.000000 0 255 0
1386.000000 553.000000 699.000000 0 255 0
1328.000000 578.000000 764.000000 0 255 0
1405.000000 556.000000 666.000000 0 255 0
1387.000000 558.000000 734.000000 0 255 0
1342.000000 587.000000 765.000000 0 255 0
1329.000000 546.000000 622.000000 0 255 0
1347.000000 545.000000 625.000000 0 255 0
1359.000000 549.000000 628.000000 0 255 0
1374.000000 550.000000 630.000000 0 255 0
1391.000000 551.000000 633.000000 0 255 0
1406.000000 553.000000 636.000000 0 255 0
1339.000000 545.000000 631.000000 0 255 0
1394.000000 519.000000 600.000000 0 255 0
1358.000000 543.000000 634.000000 0 255 0
1386.000000 535.000000 602.000000 0 255 0
1368.000000 548.000000 637.000000 0 255 0
1404.000000 535.000000 605.000000 0 255 0
1384.000000 549.000000 640.000000 0 255 0
1401.000000 549.000000 642.000000 0 255 0
1402.000000 560.000000 645.000000 0 255 0
1318.000000 551.000000 626.000000 0 255 0
1341.000000 553.000000 628.000000 0 255 0
1349.000000 553.000000 662.000000 0 255 0
1363.000000 555.000000 629.000000 0 255 0
1374.000000 554.000000 664.000000 0 255 0
1392.000000 554.000000 631.000000 0 255 0
1381.000000 552.000000 700.000000 0 255 0
1394.000000 559.000000 666.000000 0 255 0
1410.000000 559.000000 632.000000 0 255 0
1402.000000 556.000000 702.000000 0 255 0
1395.000000 558.000000 633.000000 0 255 0
1384.000000 555.000000 636.000000 0 255 0
1398.000000 539.000000 604.000000 0 255 0
1372.000000 552.000000 638.000000 0 255 0
1379.000000 542.000000 606.000000 0 255 0
1356.000000 552.000000 640.000000 0 255 0
1352.000000 549.000000 608.000000 0 255 0
1339.000000 553.000000 642.000000 0 255 0
1340.000000 547.000000 611.000000 0 255 0
1332.000000 548.000000 645.000000 0 255 0
1323.000000 549.000000 613.000000 0 255 0
1347.000000 554.000000 740.000000 0 255 0
1376.000000 556.000000 677.000000 0 255 0
1364.000000 553.000000 744.000000 0 255 0
1370.000000 558.000000 711.000000 0 255 0
1387.000000 560.000000 680.000000 0 255 0
1376.000000 555.000000 748.000000 0 255 0
1376.000000 565.000000 714.000000 0 255 0
1363.000000 561.000000 781.000000 0 255 0
1373.000000 568.000000 749.000000 0 255 0
1615.000000 526.000000 793.000000 0 255 0
762.000000 2371.000000 526.000000 0 255 0
763.000000 2377.000000 532.000000 0 255 0
750.000000 2369.000000 515.000000 0 255 0
732.000000 2359.000000 508.000000 0 255 0
415.000000 2883.000000 643.000000 0 255 0
418.000000 2874.000000 569.000000 0 255 0
416.000000 2891.000000 614.000000 0 255 0
409.000000 2875.000000 589.000000 0 255 0
427.000000 2916.000000 561.000000 0 255 0
421.000000 2920.000000 581.000000 0 255 0
413.000000 2925.000000 601.000000 0 255 0
414.000000 2922.000000 576.000000 0 255 0
411.000000 2929.000000 572.000000 0 255 0
356.000000 2904.000000 481.000000 0 255 0
365.000000 2910.000000 550.000000 0 255 0
366.000000 2930.000000 480.000000 0 255 0
373.000000 2923.000000 570.000000 0 255 0
370.000000 2907.000000 561.000000 0 255 0
351.000000 2904.000000 468.000000 0 255 0
411.000000 2894.000000 625.000000 0 255 0
427.000000 2910.000000 600.000000 0 255 0
407.000000 2912.000000 646.000000 0 255 0
407.000000 2883.000000 575.000000 0 255 0
421.000000 2942.000000 618.000000 0 255 0
358.000000 2919.000000 619.000000 0 255 0
358.000000 2907.000000 569.000000 0 255 0
412.000000 2934.000000 569.000000 0 255 0
411.000000 2911.000000 649.000000 0 255 0
420.000000 2895.000000 578.000000 0 255 0
414.000000 2900.000000 598.000000 0 255 0
419.000000 2932.000000 621.000000 0 255 0
358.000000 2913.000000 568.000000 0 255 0
396.000000 2926.000000 552.000000 0 255 0
410.000000 2921.000000 568.000000 0 255 0
414.000000 2910.000000 564.000000 0 255 0
406.000000 2882.000000 597.000000 0 255 0
414.000000 2917.000000 644.000000 0 255 0
415.000000 2906.000000 594.000000 0 255 0
411.000000 2911.000000 589.000000 0 255 0
393.000000 2893.000000 584.000000 0 255 0
394.000000 2919.000000 618.000000 0 255 0
394.000000 2911.000000 593.000000 0 255 0
412.000000 2913.000000 604.000000 0 255 0
415.000000 2916.000000 626.000000 0 255 0
412.000000 2899.000000 621.000000 0 255 0
415.000000 2889.000000 580.000000 0 255 0
416.000000 2912.000000 627.000000 0 255 0
419.000000 2911.000000 576.000000 0 255 0
353.000000 2917.000000 620.000000 0 255 0
410.000000 2900.000000 566.000000 0 255 0
412.000000 2929.000000 470.000000 0 255 0
427.000000 2886.000000 455.000000 0 255 0
418.000000 2914.000000 650.000000 0 255 0
414.000000 2895.000000 599.000000 0 255 0
412.000000 2902.000000 595.000000 0 255 0
400.000000 2894.000000 590.000000 0 255 0
416.000000 2929.000000 612.000000 0 255 0
387.000000 2891.000000 581.000000 0 255 0
392.000000 2932.000000 650.000000 0 255 0
399.000000 2919.000000 579.000000 0 255 0
390.000000 2913.000000 624.000000 0 255 0
392.000000 2907.000000 599.000000 0 255 0
410.000000 2912.000000 610.000000 0 255 0
414.000000 2876.000000 618.000000 0 255 0
415.000000 2867.000000 592.000000 0 255 0
427.000000 2902.000000 580.000000 0 255 0
406.000000 2898.000000 625.000000 0 255 0
410.000000 2899.000000 600.000000 0 255 0
417.000000 2904.000000 575.000000 0 255 0
421.000000 2931.000000 597.000000 0 255 0
338.000000 2922.000000 552.000000 0 255 0
417.000000 2925.000000 627.000000 0 255 0
396.000000 2923.000000 559.000000 0 255 0
407.000000 2925.000000 554.000000 0 255 0
415.000000 2926.000000 575.000000 0 255 0
414.000000 2906.000000 571.000000 0 255 0
412.000000 2887.000000 566.000000 0 255 0
402.000000 2886.000000 581.000000 0 255 0
396.000000 2916.000000 662.000000 0 255 0
401.000000 2920.000000 658.000000 0 255 0
413.000000 2906.000000 634.000000 0 255 0
413.000000 2896.000000 629.000000 0 255 0
416.000000 2893.000000 646.000000 0 255 0
398.000000 2889.000000 611.000000 0 255 0
378.000000 2912.000000 672.000000 0 255 0
389.000000 2926.000000 649.000000 0 255 0
394.000000 2932.000000 661.000000 0 255 0
411.000000 2914.000000 621.000000 0 255 0
409.000000 2897.000000 571.000000 0 255 0
414.000000 2896.000000 632.000000 0 255 0
400.000000 2855.000000 569.000000 0 255 0
415.000000 2870.000000 581.000000 0 255 0
413.000000 2878.000000 683.000000 0 255 0
421.000000 2896.000000 600.000000 0 255 0
426.000000 2899.000000 575.000000 0 255 0
408.000000 2898.000000 621.000000 0 255 0
416.000000 2905.000000 596.000000 0 255 0
352.000000 2912.000000 585.000000 0 255 0
423.000000 2922.000000 647.000000 0 255 0
431.000000 2903.000000 575.000000 0 255 0
417.000000 2905.000000 620.000000 0 255 0
428.000000 2898.000000 551.000000 0 255 0
425.000000 2910.000000 571.000000 0 255 0
410.000000 2908.000000 616.000000 0 255 0
421.000000 2917.000000 566.000000 0 255 0
363.000000 2916.000000 551.000000 0 255 0
356.000000 2925.000000 481.000000 0 255 0
351.000000 2907.000000 580.000000 0 255 0
364.000000 2930.000000 462.000000 0 255 0
406.000000 2893.000000 570.000000 0 255 0
424.000000 2906.000000 603.000000 0 255 0
412.000000 2919.000000 650.000000 0 255 0
416.000000 2918.000000 624.000000 0 255 0
383.000000 2919.000000 581.000000 0 255 0
414.000000 2935.000000 573.000000 0 255 0
406.000000 2879.000000 599.000000 0 255 0
396.000000 2912.000000 636.000000 0 255 0
395.000000 2911.000000 582.000000 0 255 0
372.000000 2907.000000 563.000000 0 255 0
376.000000 2902.000000 565.000000 0 255 0
398.000000 2905.000000 596.000000 0 255 0
414.000000 2916.000000 592.000000 0 255 0
412.000000 2909.000000 613.000000 0 255 0
416.000000 2899.000000 609.000000 0 255 0
412.000000 2885.000000 583.000000 0 255 0
415.000000 2874.000000 579.000000 0 255 0
423.000000 2883.000000 549.000000 0 255 0
423.000000 2898.000000 568.000000 0 255 0
418.000000 2906.000000 589.000000 0 255 0
422.000000 2925.000000 561.000000 0 255 0
424.000000 2940.000000 581.000000 0 255 0
403.000000 2937.000000 596.000000 0 255 0
382.000000 2899.000000 571.000000 0 255 0
355.000000 2915.000000 466.000000 0 255 0
358.000000 2915.000000 461.000000 0 255 0
423.000000 2878.000000 611.000000 0 255 0
426.000000 2892.000000 607.000000 0 255 0
422.000000 2895.000000 602.000000 0 255 0
413.000000 2898.000000 594.000000 0 255 0
406.000000 2885.000000 568.000000 0 255 0
408.000000 2903.000000 584.000000 0 255 0
411.000000 2871.000000 578.000000 0 255 0
420.000000 2889.000000 573.000000 0 255 0
418.000000 2879.000000 659.000000 0 255 0
410.000000 2903.000000 592.000000 0 255 0
378.000000 2899.000000 565.000000 0 255 0
382.000000 2938.000000 646.000000 0 255 0
410.000000 2919.000000 608.000000 0 255 0
411.000000 2907.000000 603.000000 0 255 0
415.000000 2886.000000 594.000000 0 255 0
413.000000 2884.000000 615.000000 0 255 0
417.000000 2914.000000 637.000000 0 255 0
417.000000 2905.000000 611.000000 0 255 0
420.000000 2882.000000 625.000000 0 255 0
431.000000 2914.000000 622.000000 0 255 0
417.000000 2918.000000 644.000000 0 255 0
405.000000 2930.000000 605.000000 0 255 0
392.000000 2921.000000 600.000000 0 255 0
377.000000 2908.000000 595.000000 0 255 0
380.000000 2915.000000 570.000000 0 255 0
357.000000 2907.000000 557.000000 0 255 0
366.000000 2922.000000 582.000000 0 255 0
390.000000 2906.000000 560.000000 0 255 0
413.000000 2930.000000 580.000000 0 255 0
414.000000 2917.000000 575.000000 0 255 0
395.000000 2871.000000 548.000000 0 255 0
412.000000 2868.000000 563.000000 0 255 0
417.000000 2889.000000 604.000000 0 255 0
415.000000 2882.000000 579.000000 0 255 0
423.000000 2894.000000 556.000000 0 255 0
426.000000 2910.000000 575.000000 0 255 0
424.000000 2909.000000 551.000000 0 255 0
406.000000 2907.000000 591.000000 0 255 0
407.000000 2905.000000 566.000000 0 255 0
400.000000 2907.000000 586.000000 0 255 0
399.000000 2903.000000 562.000000 0 255 0
392.000000 2905.000000 582.000000 0 255 0
375.000000 2919.000000 475.000000 0 255 0
374.000000 2925.000000 470.000000 0 255 0
372.000000 2905.000000 570.000000 0 255 0
419.000000 2882.000000 589.000000 0 255 0
417.000000 2932.000000 658.000000 0 255 0
425.000000 2907.000000 585.000000 0 255 0
416.000000 2891.000000 561.000000 0 255 0
417.000000 2912.000000 606.000000 0 255 0
381.000000 2921.000000 559.000000 0 255 0
350.000000 2890.000000 573.000000 0 255 0
361.000000 2922.000000 551.000000 0 255 0
413.000000 2906.000000 659.000000 0 255 0
419.000000 2876.000000 587.000000 0 255 0
409.000000 2884.000000 608.000000 0 255 0
426.000000 2903.000000 583.000000 0 255 0
408.000000 2904.000000 629.000000 0 255 0
414.000000 2908.000000 604.000000 0 255 0
417.000000 2907.000000 579.000000 0 255 0
357.000000 2929.000000 476.000000 0 255 0
359.000000 2920.000000 472.000000 0 255 0
373.000000 2931.000000 466.000000 0 255 0
415.000000 2898.000000 603.000000 0 255 0
421.000000 2910.000000 578.000000 0 255 0
361.000000 2932.000000 593.000000 0 255 0
409.000000 2915.000000 548.000000 0 255 0
409.000000 2903.000000 568.000000 0 255 0
407.000000 2866.000000 599.000000 0 255 0
436.000000 2923.000000 622.000000 0 255 0
357.000000 2912.000000 552.000000 0 255 0
354.000000 2907.000000 571.000000 0 255 0
411.000000 2930.000000 605.000000 0 255 0
415.000000 2926.000000 579.000000 0 255 0
415.000000 2911.000000 575.000000 0 255 0
416.000000 2905.000000 596.000000 0 255 0
415.000000 2872.000000 590.000000 0 255 0
414.000000 2896.000000 635.000000 0 255 0
422.000000 2897.000000 586.000000 0 255 0
407.000000 2902.000000 631.000000 0 255 0
412.000000 2901.000000 607.000000 0 255 0
425.000000 2919.000000 582.000000 0 255 0
412.000000 2924.000000 628.000000 0 255 0
417.000000 2903.000000 558.000000 0 255 0
416.000000 2921.000000 603.000000 0 255 0
359.000000 2918.000000 459.000000 0 255 0
412.000000 2891.000000 579.000000 0 255 0
341.000000 2904.000000 556.000000 0 255 0
360.000000 2955.000000 479.000000 0 255 0
412.000000 2894.000000 565.000000 0 255 0
430.000000 2897.000000 457.000000 0 255 0
425.000000 2892.000000 618.000000 0 255 0
418.000000 2900.000000 584.000000 0 255 0
422.000000 2919.000000 606.000000 0 255 0
416.000000 2906.000000 580.000000 0 255 0
406.000000 2889.000000 556.000000 0 255 0
415.000000 2918.000000 601.000000 0 255 0
427.000000 2894.000000 617.000000 0 255 0
422.000000 2899.000000 613.000000 0 255 0
417.000000 2907.000000 578.000000 0 255 0
412.000000 2907.000000 574.000000 0 255 0
404.000000 2936.000000 599.000000 0 255 0
401.000000 2933.000000 574.000000 0 255 0
378.000000 2928.000000 615.000000 0 255 0
356.000000 2912.000000 575.000000 0 255 0
393.000000 2914.000000 573.000000 0 255 0
412.000000 2919.000000 590.000000 0 255 0
432.000000 2918.000000 579.000000 0 255 0
414.000000 2907.000000 599.000000 0 255 0
423.000000 2920.000000 575.000000 0 255 0
372.000000 2928.000000 565.000000 0 255 0
362.000000 2939.000000 470.000000 0 255 0
359.000000 2921.000000 461.000000 0 255 0
358.000000 2910.000000 457.000000 0 255 0
425.000000 2898.000000 601.000000 0 255 0
411.000000 2902.000000 622.000000 0 255 0
415.000000 2899.000000 597.000000 0 255 0
406.000000 2889.000000 572.000000 0 255 0
418.000000 2929.000000 619.000000 0 255 0
355.000000 2930.000000 612.000000 0 255 0
412.000000 2910.000000 563.000000 0 255 0
416.000000 2880.000000 556.000000 0 255 0
433.000000 2917.000000 623.000000 0 255 0
412.000000 2924.000000 640.000000 0 255 0
408.000000 2921.000000 585.000000 0 255 0
399.000000 2918.000000 580.000000 0 255 0
370.000000 2912.000000 562.000000 0 255 0
396.000000 2923.000000 594.000000 0 255 0
408.000000 2925.000000 611.000000 0 255 0
408.000000 2916.000000 585.000000 0 255 0
412.000000 2900.000000 602.000000 0 255 0
411.000000 2884.000000 597.000000 0 255 0
413.000000 2879.000000 572.000000 0 255 0
415.000000 2874.000000 593.000000 0 255 0
420.000000 2885.000000 589.000000 0 255 0
411.000000 2893.000000 610.000000 0 255 0
410.000000 2887.000000 585.000000 0 255 0
364.000000 2922.000000 579.000000 0 255 0
362.000000 2930.000000 575.000000 0 255 0
353.000000 2919.000000 478.000000 0 255 0
373.000000 2940.000000 472.000000 0 255 0
413.000000 2885.000000 619.000000 0 255 0
409.000000 2873.000000 595.000000 0 255 0
422.000000 2890.000000 570.000000 0 255 0
414.000000 2893.000000 591.000000 0 255 0
426.000000 2911.000000 566.000000 0 255 0
415.000000 2909.000000 587.000000 0 255 0
416.000000 2911.000000 562.000000 0 255 0
404.000000 2918.000000 554.000000 0 255 0
383.000000 2920.000000 589.000000 0 255 0
367.000000 2902.000000 584.000000 0 255 0
373.000000 2929.000000 601.000000 0 255 0
425.000000 2907.000000 604.000000 0 255 0
406.000000 2880.000000 578.000000 0 255 0
413.000000 2913.000000 625.000000 0 255 0
362.000000 2911.000000 573.000000 0 255 0
359.000000 2918.000000 568.000000 0 255 0
409.000000 2910.000000 569.000000 0 255 0
412.000000 2898.000000 565.000000 0 255 0
428.000000 2898.000000 457.000000 0 255 0
424.000000 2882.000000 601.000000 0 255 0
424.000000 2879.000000 576.000000 0 255 0
425.000000 2892.000000 597.000000 0 255 0
418.000000 2890.000000 592.000000 0 255 0
411.000000 2893.000000 474.000000 0 255 0
411.000000 2899.000000 579.000000 0 255 0
407.000000 2900.000000 570.000000 0 255 0
405.000000 2900.000000 557.000000 0 255 0
394.000000 2897.000000 478.000000 0 255 0
423.000000 2884.000000 629.000000 0 255 0
429.000000 2908.000000 626.000000 0 255 0
428.000000 2920.000000 622.000000 0 255 0
410.000000 2921.000000 588.000000 0 255 0
395.000000 2922.000000 579.000000 0 255 0
385.000000 2916.000000 574.000000 0 255 0
360.000000 2895.000000 565.000000 0 255 0
394.000000 2940.000000 624.000000 0 255 0
389.000000 2903.000000 568.000000 0 255 0
409.000000 2911.000000 584.000000 0 255 0
413.000000 2911.000000 605.000000 0 255 0
414.000000 2904.000000 580.000000 0 255 0
412.000000 2894.000000 601.000000 0 255 0
414.000000 2873.000000 571.000000 0 255 0
420.000000 2887.000000 610.000000 0 255 0
422.000000 2885.000000 584.000000 0 255 0
419.000000 2895.000000 605.000000 0 255 0
417.000000 2900.000000 601.000000 0 255 0
416.000000 2908.000000 597.000000 0 255 0
405.000000 2880.000000 653.000000 0 255 0
410.000000 2911.000000 646.000000 0 255 0
407.000000 2907.000000 616.000000 0 255 0
397.000000 2903.000000 586.000000 0 255 0
377.000000 2905.000000 568.000000 0 255 0
372.000000 2909.000000 569.000000 0 255 0
395.000000 2936.000000 637.000000 0 255 0
401.000000 2920.000000 606.000000 0 255 0
403.000000 2906.000000 576.000000 0 255 0
416.000000 2930.000000 623.000000 0 255 0
411.000000 2910.000000 597.000000 0 255 0
411.000000 2883.000000 588.000000 0 255 0
421.000000 2894.000000 598.000000 0 255 0
403.000000 2896.000000 643.000000 0 255 0
424.000000 2894.000000 573.000000 0 255 0
409.000000 2895.000000 619.000000 0 255 0
416.000000 2898.000000 569.000000 0 255 0
425.000000 2886.000000 604.000000 0 255 0
413.000000 2866.000000 578.000000 0 255 0
418.000000 2900.000000 591.000000 0 255 0
409.000000 2900.000000 582.000000 0 255 0
408.000000 2881.000000 629.000000 0 255 0
422.000000 2893.000000 605.000000 0 255 0
412.000000 2895.000000 600.000000 0 255 0
353.000000 2925.000000 615.000000 0 255 0
408.000000 2899.000000 566.000000 0 255 0
410.000000 2880.000000 606.000000 0 255 0
423.000000 2895.000000 582.000000 0 255 0
410.000000 2897.000000 603.000000 0 255 0
367.000000 2929.000000 572.000000 0 255 0
358.000000 2932.000000 475.000000 0 255 0
418.000000 2886.000000 461.000000 0 255 0
410.000000 2880.000000 609.000000 0 255 0
351.000000 2924.000000 620.000000 0 255 0
349.000000 2901.000000 551.000000 0 255 0
411.000000 2920.000000 555.000000 0 255 0
418.000000 2920.000000 576.000000 0 255 0
416.000000 2900.000000 572.000000 0 255 0
427.000000 2890.000000 464.000000 0 255 0
425.000000 2894.000000 626.000000 0 255 0
397.000000 2920.000000 580.000000 0 255 0
378.000000 2912.000000 571.000000 0 255 0
362.000000 2912.000000 558.000000 0 255 0
359.000000 2919.000000 582.000000 0 255 0
414.000000 2916.000000 581.000000 0 255 0
411.000000 2905.000000 602.000000 0 255 0
414.000000 2901.000000 576.000000 0 255 0
415.000000 2895.000000 597.000000 0 255 0
414.000000 2887.000000 572.000000 0 255 0
2235.000000 1383.000000 586.000000 0 255 0
2241.000000 1379.000000 581.000000 0 255 0
2192.000000 1418.000000 577.000000 0 255 0
2259.000000 1360.000000 586.000000 0 255 0
2221.000000 1386.000000 585.000000 0 255 0
2210.000000 1394.000000 586.000000 0 255 0
2223.000000 1419.000000 542.000000 0 255 0
2216.000000 1401.000000 581.000000 0 255 0
2250.000000 1370.000000 583.000000 0 255 0
2206.000000 1379.000000 584.000000 0 255 0
2220.000000 1406.000000 563.000000 0 255 0
2206.000000 1404.000000 565.000000 0 255 0
2205.000000 1377.000000 583.000000 0 255 0
2214.000000 1398.000000 582.000000 0 255 0
2201.000000 1421.000000 546.000000 0 255 0
2182.000000 1424.000000 579.000000 0 255 0
2225.000000 1365.000000 584.000000 0 255 0
2196.000000 1381.000000 584.000000 0 255 0
2215.000000 1405.000000 584.000000 0 255 0
2177.000000 1406.000000 565.000000 0 255 0
2202.000000 1346.000000 581.000000 0 255 0
2245.000000 1372.000000 590.000000 0 255 0
2208.000000 1403.000000 589.000000 0 255 0
2218.000000 1409.000000 543.000000 0 255 0
2236.000000 1356.000000 586.000000 0 255 0
2209.000000 1355.000000 577.000000 0 255 0
2215.000000 1391.000000 584.000000 0 255 0
2247.000000 1374.000000 584.000000 0 255 0
2194.000000 1397.000000 581.000000 0 255 0
2250.000000 1364.000000 581.000000 0 255 0
2212.000000 1411.000000 534.000000 0 255 0
2233.000000 1381.000000 586.000000 0 255 0
2305.000000 1113.000000 631.000000 0 255 0
2194.000000 1412.000000 555.000000 0 255 0
2193.000000 1409.000000 563.000000 0 255 0
2203.000000 1419.000000 575.000000 0 255 0
2207.000000 1382.000000 579.000000 0 255 0
2215.000000 1405.000000 577.000000 0 255 0
2252.000000 1381.000000 589.000000 0 255 0
2235.000000 1397.000000 588.000000 0 255 0
2206.000000 1400.000000 588.000000 0 255 0
1994.000000 1772.000000 492.000000 0 255 0
1987.000000 1769.000000 501.000000 0 255 0
1986.000000 1760.000000 485.000000 0 255 0
1997.000000 1749.000000 485.000000 0 255 0
1984.000000 1764.000000 492.000000 0 255 0
1986.000000 1740.000000 492.000000 0 255 0
1984.000000 1770.000000 501.000000 0 255 0
1983.000000 1758.000000 494.000000 0 255 0
1998.000000 1754.000000 465.000000 0 255 0
1976.000000 1765.000000 493.000000 0 255 0
1995.000000 1742.000000 493.000000 0 255 0
1987.000000 1742.000000 500.000000 0 255 0
1996.000000 1752.000000 472.000000 0 255 0
1994.000000 1755.000000 485.000000 0 255 0
1995.000000 1750.000000 485.000000 0 255 0
1998.000000 1774.000000 485.000000 0 255 0
1973.000000 1749.000000 492.000000 0 255 0
1998.000000 1822.000000 492.000000 0 255 0
1994.000000 1777.000000 501.000000 0 255 0
1985.000000 1767.000000 499.000000 0 255 0
1997.000000 1749.000000 476.000000 0 255 0
1976.000000 1745.000000 488.000000 0 255 0
1984.000000 1757.000000 487.000000 0 255 0
1996.000000 1769.000000 487.000000 0 255 0
1978.000000 1763.000000 486.000000 0 255 0
1998.000000 1753.000000 490.000000 0 255 0
1982.000000 1770.000000 493.000000 0 255 0
2008.000000 1383.000000 909.000000 0 255 0
1996.000000 1771.000000 487.000000 0 255 0
1998.000000 1759.000000 484.000000 0 255 0
1997.000000 1770.000000 484.000000 0 255 0
1997.000000 1756.000000 480.000000 0 255 0
1994.000000 1744.000000 480.000000 0 255 0
1983.000000 1759.000000 488.000000 0 255 0
1994.000000 1771.000000 487.000000 0 255 0
1973.000000 1741.000000 494.000000 0 255 0
1998.000000 1753.000000 477.000000 0 255 0
1998.000000 1774.000000 499.000000 0 255 0
1996.000000 1747.000000 487.000000 0 255 0
1995.000000 1758.000000 487.000000 0 255 0
1992.000000 1770.000000 487.000000 0 255 0
1998.000000 1751.000000 482.000000 0 255 0
1994.000000 1748.000000 488.000000 0 255 0
1994.000000 1759.000000 488.000000 0 255 0
1996.000000 1754.000000 468.000000 0 255 0
1995.000000 1746.000000 482.000000 0 255 0
1981.000000 1764.000000 488.000000 0 255 0
1967.000000 1760.000000 493.000000 0 255 0
1973.000000 1748.000000 493.000000 0 255 0
1992.000000 1768.000000 493.000000 0 255 0
1998.000000 1748.000000 477.000000 0 255 0
1978.000000 1757.000000 488.000000 0 255 0
1995.000000 1787.000000 473.000000 0 255 0
1997.000000 1747.000000 481.000000 0 255 0
1906.000000 2036.000000 428.000000 0 255 0
1908.000000 2018.000000 390.000000 0 255 0
1914.000000 2017.000000 351.000000 0 255 0
1905.000000 2027.000000 409.000000 0 255 0
1883.000000 2017.000000 336.000000 0 255 0
1905.000000 2015.000000 356.000000 0 255 0
1927.000000 2038.000000 414.000000 0 255 0
1918.000000 2029.000000 339.000000 0 255 0
1894.000000 2021.000000 417.000000 0 255 0
1890.000000 2012.000000 342.000000 0 255 0
1915.000000 2046.000000 433.000000 0 255 0
1918.000000 2034.000000 433.000000 0 255 0
1914.000000 2028.000000 358.000000 0 255 0
