1513.000000 2366.000000 586.000000 0 255 0
1483.000000 2369.000000 586.000000 0 255 0
1424.000000 2364.000000 586.000000 0 255 0
1406.000000 2370.000000 586.000000 0 255 0
1394.000000 2363.000000 568.000000 0 255 0
1355.000000 2341.000000 568.000000 0 255 0
1365.000000 2334.000000 568.000000 0 255 0
1372.000000 2325.000000 568.000000 0 255 0
1412.000000 2326.000000 568.000000 0 255 0
1384.000000 2308.000000 568.000000 0 255 0
1448.000000 2323.000000 534.000000 0 255 0
1385.000000 2288.000000 568.000000 0 255 0
1382.000000 2277.000000 568.000000 0 255 0
1391.000000 2269.000000 568.000000 0 255 0
1398.000000 2260.000000 568.000000 0 255 0
1414.000000 2253.000000 568.000000 0 255 0
1433.000000 2247.000000 568.000000 0 255 0
1438.000000 2238.000000 568.000000 0 255 0
1449.000000 2230.000000 568.000000 0 255 0
1425.000000 2373.000000 570.000000 0 255 0
1354.000000 2342.000000 570.000000 0 255 0
1368.000000 2335.000000 570.000000 0 255 0
1375.000000 2326.000000 571.000000 0 255 0
1446.000000 2333.000000 571.000000 0 255 0
1459.000000 2321.000000 538.000000 0 255 0
1487.000000 2321.000000 572.000000 0 255 0
1390.000000 2286.000000 572.000000 0 255 0
1393.000000 2275.000000 573.000000 0 255 0
1399.000000 2266.000000 573.000000 0 255 0
1413.000000 2258.000000 574.000000 0 255 0
1425.000000 2250.000000 574.000000 0 255 0
1442.000000 2243.000000 575.000000 0 255 0
1447.000000 2233.000000 575.000000 0 255 0
1406.000000 2364.000000 569.000000 0 255 0
1369.000000 2343.000000 569.000000 0 255 0
1369.000000 2332.000000 569.000000 0 255 0
1388.000000 2327.000000 570.000000 0 255 0
1460.000000 2319.000000 538.000000 0 255 0
1460.000000 2312.000000 571.000000 0 255 0
1393.000000 2285.000000 571.000000 0 255 0
1392.000000 2274.000000 571.000000 0 255 0
1409.000000 2267.000000 571.000000 0 255 0
1420.000000 2259.000000 572.000000 0 255 0
1429.000000 2250.000000 572.000000 0 255 0
1445.000000 2243.000000 572.000000 0 255 0
1465.000000 2236.000000 573.000000 0 255 0
1375.000000 2233.000000 552.000000 0 255 0
1429.000000 2252.000000 584.000000 0 255 0
1396.000000 2248.000000 552.000000 0 255 0
1421.000000 2261.000000 584.000000 0 255 0
1371.000000 2252.000000 553.000000 0 255 0
1415.000000 2270.000000 584.000000 0 255 0
1337.000000 2255.000000 553.000000 0 255 0
1403.000000 2278.000000 584.000000 0 255 0
1387.000000 2284.000000 584.000000 0 255 0
1382.000000 2308.000000 553.000000 0 255 0
1363.000000 2313.000000 553.000000 0 255 0
1449.000000 2347.000000 553.000000 0 255 0
1527.000000 2376.000000 586.000000 0 255 0
1480.000000 2374.000000 586.000000 0 255 0
1397.000000 2362.000000 585.000000 0 255 0
1431.000000 2383.000000 586.000000 0 255 0
1410.000000 2243.000000 596.000000 0 255 0
1409.000000 2244.000000 563.000000 0 255 0
1407.000000 2253.000000 596.000000 0 255 0
1404.000000 2253.000000 563.000000 0 255 0
1425.000000 2268.000000 596.000000 0 255 0
1395.000000 2262.000000 563.000000 0 255 0
1412.000000 2275.000000 596.000000 0 255 0
1402.000000 2274.000000 563.000000 0 255 0
1395.000000 2281.000000 596.000000 0 255 0
1429.000000 2291.000000 563.000000 0 255 0
1492.000000 2317.000000 563.000000 0 255 0
1416.000000 2302.000000 529.000000 0 255 0
1425.000000 2311.000000 563.000000 0 255 0
1496.000000 2333.000000 528.000000 0 255 0
1395.000000 2313.000000 563.000000 0 255 0
1374.000000 2318.000000 563.000000 0 255 0
1361.000000 2325.000000 563.000000 0 255 0
1371.000000 2338.000000 563.000000 0 255 0
1431.000000 2365.000000 563.000000 0 255 0
1463.000000 2255.000000 551.000000 0 255 0
1425.000000 2253.000000 583.000000 0 255 0
1401.000000 2251.000000 551.000000 0 255 0
1417.000000 2263.000000 583.000000 0 255 0
1349.000000 2250.000000 552.000000 0 255 0
1411.000000 2272.000000 583.000000 0 255 0
1401.000000 2273.000000 551.000000 0 255 0
1395.000000 2279.000000 583.000000 0 255 0
1381.000000 2286.000000 583.000000 0 255 0
1458.000000 2319.000000 551.000000 0 255 0
1371.000000 2308.000000 552.000000 0 255 0
1383.000000 2321.000000 552.000000 0 255 0
1485.000000 2367.000000 585.000000 0 255 0
1409.000000 2357.000000 585.000000 0 255 0
1377.000000 2359.000000 584.000000 0 255 0
1468.000000 2397.000000 585.000000 0 255 0
1429.000000 2230.000000 567.000000 0 255 0
1416.000000 2238.000000 568.000000 0 255 0
1408.000000 2247.000000 568.000000 0 255 0
1402.000000 2257.000000 568.000000 0 255 0
1387.000000 2264.000000 569.000000 0 255 0
1392.000000 2276.000000 569.000000 0 255 0
1380.000000 2284.000000 569.000000 0 255 0
1389.000000 2297.000000 570.000000 0 255 0
1399.000000 2322.000000 570.000000 0 255 0
1380.000000 2328.000000 571.000000 0 255 0
1366.000000 2335.000000 571.000000 0 255 0
1355.000000 2343.000000 571.000000 0 255 0
1396.000000 2366.000000 572.000000 0 255 0
1470.000000 2252.000000 559.000000 0 255 0
1407.000000 2249.000000 559.000000 0 255 0
1411.000000 2261.000000 560.000000 0 255 0
1425.000000 2275.000000 560.000000 0 255 0
1401.000000 2276.000000 592.000000 0 255 0
1471.000000 2319.000000 560.000000 0 255 0
1410.000000 2305.000000 526.000000 0 255 0
1401.000000 2313.000000 561.000000 0 255 0
1442.000000 2325.000000 526.000000 0 255 0
1368.000000 2315.000000 561.000000 0 255 0
1366.000000 2325.000000 561.000000 0 255 0
1386.000000 2341.000000 562.000000 0 255 0
1454.000000 2371.000000 562.000000 0 255 0
1454.000000 2323.000000 535.000000 0 255 0
1366.000000 2348.000000 565.000000 0 255 0
1364.000000 2336.000000 565.000000 0 255 0
1378.000000 2330.000000 565.000000 0 255 0
1376.000000 2318.000000 565.000000 0 255 0
1384.000000 2288.000000 566.000000 0 255 0
1383.000000 2277.000000 567.000000 0 255 0
1405.000000 2272.000000 567.000000 0 255 0
1411.000000 2262.000000 567.000000 0 255 0
1420.000000 2253.000000 567.000000 0 255 0
1427.000000 2244.000000 568.000000 0 255 0
1430.000000 2234.000000 568.000000 0 255 0
1452.000000 2233.000000 576.000000 0 255 0
1455.000000 2245.000000 576.000000 0 255 0
1417.000000 2247.000000 576.000000 0 255 0
1417.000000 2258.000000 577.000000 0 255 0
1406.000000 2266.000000 577.000000 0 255 0
1399.000000 2275.000000 577.000000 0 255 0
1380.000000 2282.000000 578.000000 0 255 0
1429.000000 2305.000000 578.000000 0 255 0
1383.000000 2306.000000 545.000000 0 255 0
1445.000000 2333.000000 545.000000 0 255 0
1438.000000 2341.000000 579.000000 0 255 0
1387.000000 2338.000000 579.000000 0 255 0
1367.000000 2344.000000 580.000000 0 255 0
1355.000000 2351.000000 580.000000 0 255 0
1478.000000 2398.000000 581.000000 0 255 0
1432.000000 2233.000000 573.000000 0 255 0
1430.000000 2243.000000 573.000000 0 255 0
1421.000000 2252.000000 573.000000 0 255 0
1409.000000 2259.000000 573.000000 0 255 0
1394.000000 2266.000000 573.000000 0 255 0
1387.000000 2275.000000 573.000000 0 255 0
1376.000000 2282.000000 573.000000 0 255 0
1392.000000 2296.000000 573.000000 0 255 0
1410.000000 2315.000000 541.000000 0 255 0
1502.000000 2346.000000 573.000000 0 255 0
1375.000000 2323.000000 573.000000 0 255 0
1370.000000 2332.000000 573.000000 0 255 0
1364.000000 2341.000000 573.000000 0 255 0
1352.000000 2348.000000 573.000000 0 255 0
1399.000000 2361.000000 562.000000 0 255 0
1354.000000 2337.000000 562.000000 0 255 0
1360.000000 2329.000000 562.000000 0 255 0
1368.000000 2321.000000 562.000000 0 255 0
1389.000000 2316.000000 562.000000 0 255 0
1485.000000 2330.000000 562.000000 0 255 0
1417.000000 2302.000000 562.000000 0 255 0
1379.000000 2282.000000 562.000000 0 255 0
1374.000000 2275.000000 595.000000 0 255 0
1384.000000 2274.000000 562.000000 0 255 0
1391.000000 2265.000000 562.000000 0 255 0
1401.000000 2257.000000 562.000000 0 255 0
1406.000000 2248.000000 562.000000 0 255 0
1415.000000 2239.000000 562.000000 0 255 0
1439.000000 2234.000000 562.000000 0 255 0
1457.000000 2382.000000 569.000000 0 255 0
1367.000000 2346.000000 569.000000 0 255 0
1373.000000 2337.000000 569.000000 0 255 0
1372.000000 2326.000000 569.000000 0 255 0
1429.000000 2331.000000 569.000000 0 255 0
1460.000000 2325.000000 536.000000 0 255 0
1388.000000 2289.000000 569.000000 0 255 0
1386.000000 2278.000000 569.000000 0 255 0
1405.000000 2272.000000 569.000000 0 255 0
1413.000000 2263.000000 569.000000 0 255 0
1426.000000 2256.000000 569.000000 0 255 0
1428.000000 2245.000000 570.000000 0 255 0
1432.000000 2236.000000 570.000000 0 255 0
1398.000000 2218.000000 570.000000 0 255 0
1442.000000 2240.000000 583.000000 0 255 0
1357.000000 2224.000000 552.000000 0 255 0
1396.000000 2243.000000 552.000000 0 255 0
1418.000000 2256.000000 584.000000 0 255 0
1406.000000 2256.000000 552.000000 0 255 0
1415.000000 2266.000000 584.000000 0 255 0
1343.000000 2252.000000 552.000000 0 255 0
1413.000000 2276.000000 584.000000 0 255 0
1390.000000 2281.000000 584.000000 0 255 0
1435.000000 2303.000000 584.000000 0 255 0
1406.000000 2310.000000 552.000000 0 255 0
1373.000000 2312.000000 553.000000 0 255 0
1411.000000 2333.000000 553.000000 0 255 0
1488.000000 2372.000000 586.000000 0 255 0
1406.000000 2360.000000 585.000000 0 255 0
1407.000000 2371.000000 585.000000 0 255 0
1447.000000 2232.000000 569.000000 0 255 0
1414.000000 2237.000000 569.000000 0 255 0
1405.000000 2245.000000 569.000000 0 255 0
1398.000000 2255.000000 570.000000 0 255 0
1387.000000 2263.000000 570.000000 0 255 0
1381.000000 2273.000000 570.000000 0 255 0
1374.000000 2282.000000 571.000000 0 255 0
1381.000000 2294.000000 571.000000 0 255 0
1410.000000 2324.000000 572.000000 0 255 0
1373.000000 2325.000000 573.000000 0 255 0
1365.000000 2334.000000 573.000000 0 255 0
1353.000000 2342.000000 573.000000 0 255 0
1358.000000 2355.000000 574.000000 0 255 0
1447.000000 2234.000000 570.000000 0 255 0
1422.000000 2239.000000 570.000000 0 255 0
1419.000000 2250.000000 571.000000 0 255 0
1401.000000 2256.000000 571.000000 0 255 0
1401.000000 2267.000000 571.000000 0 255 0
1388.000000 2275.000000 571.000000 0 255 0
1382.000000 2284.000000 572.000000 0 255 0
1392.000000 2297.000000 572.000000 0 255 0
1447.000000 2324.000000 538.000000 0 255 0
1433.000000 2330.000000 573.000000 0 255 0
1375.000000 2326.000000 573.000000 0 255 0
1368.000000 2335.000000 573.000000 0 255 0
1361.000000 2344.000000 573.000000 0 255 0
1382.000000 2360.000000 574.000000 0 255 0
1433.000000 2258.000000 586.000000 0 255 0
1420.000000 2265.000000 586.000000 0 255 0
1422.000000 2276.000000 586.000000 0 255 0
1400.000000 2281.000000 586.000000 0 255 0
1387.000000 2289.000000 586.000000 0 255 0
1466.000000 2362.000000 586.000000 0 255 0
1436.000000 2364.000000 586.000000 0 255 0
1386.000000 2360.000000 585.000000 0 255 0
1398.000000 2374.000000 585.000000 0 255 0
1441.000000 2321.000000 531.000000 0 255 0
1403.000000 2241.000000 552.000000 0 255 0
1431.000000 2253.000000 585.000000 0 255 0
1426.000000 2263.000000 585.000000 0 255 0
1381.000000 2257.000000 553.000000 0 255 0
1415.000000 2272.000000 585.000000 0 255 0
1355.000000 2262.000000 553.000000 0 255 0
1398.000000 2279.000000 586.000000 0 255 0
1387.000000 2287.000000 586.000000 0 255 0
1417.000000 2310.000000 554.000000 0 255 0
1366.000000 2308.000000 555.000000 0 255 0
1358.000000 2317.000000 555.000000 0 255 0
1418.000000 2344.000000 555.000000 0 255 0
1519.000000 2391.000000 590.000000 0 255 0
1449.000000 2235.000000 577.000000 0 255 0
1453.000000 2247.000000 577.000000 0 255 0
1427.000000 2251.000000 577.000000 0 255 0
1418.000000 2260.000000 577.000000 0 255 0
1408.000000 2268.000000 577.000000 0 255 0
1398.000000 2276.000000 577.000000 0 255 0
1383.000000 2282.000000 577.000000 0 255 0
1399.000000 2297.000000 577.000000 0 255 0
1393.000000 2309.000000 545.000000 0 255 0
1450.000000 2331.000000 577.000000 0 255 0
1463.000000 2338.000000 544.000000 0 255 0
1428.000000 2336.000000 577.000000 0 255 0
1378.000000 2333.000000 577.000000 0 255 0
1370.000000 2341.000000 577.000000 0 255 0
1362.000000 2349.000000 577.000000 0 255 0
1417.000000 2375.000000 577.000000 0 255 0
1425.000000 2242.000000 571.000000 0 255 0
1415.000000 2251.000000 571.000000 0 255 0
1407.000000 2260.000000 571.000000 0 255 0
1401.000000 2269.000000 572.000000 0 255 0
1384.000000 2276.000000 572.000000 0 255 0
1382.000000 2286.000000 572.000000 0 255 0
1440.000000 2312.000000 573.000000 0 255 0
1410.000000 2326.000000 573.000000 0 255 0
1372.000000 2327.000000 573.000000 0 255 0
1364.000000 2336.000000 574.000000 0 255 0
1364.000000 2347.000000 574.000000 0 255 0
1415.000000 2372.000000 574.000000 0 255 0
1443.000000 2230.000000 576.000000 0 255 0
1432.000000 2249.000000 576.000000 0 255 0
1412.000000 2256.000000 577.000000 0 255 0
1407.000000 2266.000000 577.000000 0 255 0
1395.000000 2274.000000 577.000000 0 255 0
1391.000000 2284.000000 578.000000 0 255 0
1414.000000 2301.000000 578.000000 0 255 0
1376.000000 2306.000000 547.000000 0 255 0
1397.000000 2323.000000 547.000000 0 255 0
1441.000000 2342.000000 580.000000 0 255 0
1394.000000 2340.000000 580.000000 0 255 0
1372.000000 2345.000000 580.000000 0 255 0
1359.000000 2352.000000 580.000000 0 255 0
1457.000000 2392.000000 581.000000 0 255 0
1397.000000 2234.000000 558.000000 0 255 0
1424.000000 2251.000000 558.000000 0 255 0
1431.000000 2292.000000 591.000000 0 255 0
1400.000000 2287.000000 559.000000 0 255 0
1406.000000 2310.000000 559.000000 0 255 0
1432.000000 2318.000000 524.000000 0 255 0
1372.000000 2312.000000 559.000000 0 255 0
1374.000000 2323.000000 559.000000 0 255 0
1410.000000 2343.000000 559.000000 0 255 0
1494.000000 2377.000000 559.000000 0 255 0
1392.000000 2363.000000 568.000000 0 255 0
1355.000000 2342.000000 568.000000 0 255 0
1363.000000 2334.000000 568.000000 0 255 0
1375.000000 2327.000000 568.000000 0 255 0
1394.000000 2322.000000 568.000000 0 255 0
1479.000000 2330.000000 533.000000 0 255 0
1483.000000 2324.000000 568.000000 0 255 0
1394.000000 2291.000000 568.000000 0 255 0
1383.000000 2278.000000 568.000000 0 255 0
1390.000000 2270.000000 568.000000 0 255 0
1402.000000 2262.000000 568.000000 0 255 0
1410.000000 2254.000000 568.000000 0 255 0
1418.000000 2245.000000 568.000000 0 255 0
1430.000000 2237.000000 568.000000 0 255 0
1441.000000 2230.000000 568.000000 0 255 0
1456.000000 2237.000000 567.000000 0 255 0
1424.000000 2240.000000 567.000000 0 255 0
1414.000000 2248.000000 567.000000 0 255 0
1403.000000 2256.000000 567.000000 0 255 0
1392.000000 2264.000000 567.000000 0 255 0
1386.000000 2273.000000 567.000000 0 255 0
1377.000000 2278.000000 599.000000 0 255 0
1379.000000 2282.000000 567.000000 0 255 0
1410.000000 2300.000000 567.000000 0 255 0
1486.000000 2330.000000 567.000000 0 255 0
1464.000000 2326.000000 533.000000 0 255 0
1413.000000 2322.000000 567.000000 0 255 0
1369.000000 2321.000000 567.000000 0 255 0
1370.000000 2332.000000 567.000000 0 255 0
1362.000000 2340.000000 567.000000 0 255 0
1378.000000 2355.000000 568.000000 0 255 0
1440.000000 2234.000000 576.000000 0 255 0
1432.000000 2243.000000 576.000000 0 255 0
1413.000000 2250.000000 577.000000 0 255 0
1403.000000 2259.000000 577.000000 0 255 0
1392.000000 2267.000000 577.000000 0 255 0
1379.000000 2275.000000 578.000000 0 255 0
1375.000000 2285.000000 578.000000 0 255 0
1378.000000 2297.000000 579.000000 0 255 0
1492.000000 2349.000000 580.000000 0 255 0
1395.000000 2335.000000 580.000000 0 255 0
1375.000000 2340.000000 580.000000 0 255 0
1361.000000 2347.000000 581.000000 0 255 0
1355.000000 2357.000000 581.000000 0 255 0
1358.000000 2350.000000 570.000000 0 255 0
1363.000000 2342.000000 570.000000 0 255 0
1366.000000 2332.000000 570.000000 0 255 0
1373.000000 2324.000000 570.000000 0 255 0
1491.000000 2345.000000 570.000000 0 255 0
1434.000000 2308.000000 570.000000 0 255 0
1384.000000 2285.000000 570.000000 0 255 0
1390.000000 2277.000000 570.000000 0 255 0
1400.000000 2268.000000 570.000000 0 255 0
1409.000000 2260.000000 570.000000 0 255 0
1422.000000 2253.000000 570.000000 0 255 0
1430.000000 2244.000000 570.000000 0 255 0
1438.000000 2236.000000 570.000000 0 255 0
1349.000000 2343.000000 566.000000 0 255 0
1360.000000 2335.000000 567.000000 0 255 0
1367.000000 2327.000000 567.000000 0 255 0
1384.000000 2320.000000 567.000000 0 255 0
1503.000000 2338.000000 533.000000 0 255 0
1384.000000 2298.000000 568.000000 0 255 0
1375.000000 2285.000000 568.000000 0 255 0
1386.000000 2277.000000 569.000000 0 255 0
1394.000000 2268.000000 569.000000 0 255 0
1416.000000 2263.000000 570.000000 0 255 0
1430.000000 2255.000000 570.000000 0 255 0
1430.000000 2244.000000 570.000000 0 255 0
1438.000000 2235.000000 571.000000 0 255 0
1388.000000 2367.000000 580.000000 0 255 0
1375.000000 2353.000000 579.000000 0 255 0
1413.000000 2353.000000 580.000000 0 255 0
1450.000000 2353.000000 580.000000 0 255 0
1517.000000 2360.000000 580.000000 0 255 0
1401.000000 2326.000000 546.000000 0 255 0
1382.000000 2311.000000 546.000000 0 255 0
1456.000000 2319.000000 545.000000 0 255 0
1393.000000 2286.000000 579.000000 0 255 0
1394.000000 2276.000000 579.000000 0 255 0
1408.000000 2269.000000 579.000000 0 255 0
1345.000000 2251.000000 547.000000 0 255 0
1422.000000 2262.000000 579.000000 0 255 0
1384.000000 2250.000000 546.000000 0 255 0
1430.000000 2253.000000 580.000000 0 255 0
1412.000000 2246.000000 546.000000 0 255 0
1419.000000 2230.000000 580.000000 0 255 0
1375.000000 2356.000000 577.000000 0 255 0
1384.000000 2348.000000 577.000000 0 255 0
1452.000000 2356.000000 577.000000 0 255 0
1514.000000 2361.000000 578.000000 0 255 0
1471.000000 2346.000000 544.000000 0 255 0
1402.000000 2317.000000 545.000000 0 255 0
1442.000000 2316.000000 545.000000 0 255 0
1403.000000 2289.000000 578.000000 0 255 0
1404.000000 2279.000000 578.000000 0 255 0
1417.000000 2271.000000 578.000000 0 255 0
1380.000000 2258.000000 546.000000 0 255 0
1427.000000 2263.000000 578.000000 0 255 0
1387.000000 2249.000000 547.000000 0 255 0
1438.000000 2254.000000 578.000000 0 255 0
1410.000000 2244.000000 546.000000 0 255 0
1364.000000 2223.000000 547.000000 0 255 0
1403.000000 2237.000000 557.000000 0 255 0
1430.000000 2253.000000 557.000000 0 255 0
1443.000000 2264.000000 589.000000 0 255 0
1358.000000 2268.000000 558.000000 0 255 0
1408.000000 2288.000000 589.000000 0 255 0
1389.000000 2307.000000 558.000000 0 255 0
1376.000000 2314.000000 558.000000 0 255 0
1372.000000 2324.000000 558.000000 0 255 0
1451.000000 2356.000000 558.000000 0 255 0
1357.000000 2345.000000 568.000000 0 255 0
1368.000000 2337.000000 568.000000 0 255 0
1372.000000 2328.000000 568.000000 0 255 0
1393.000000 2323.000000 568.000000 0 255 0
1469.000000 2327.000000 536.000000 0 255 0
1384.000000 2288.000000 569.000000 0 255 0
1387.000000 2278.000000 569.000000 0 255 0
1403.000000 2271.000000 570.000000 0 255 0
1414.000000 2263.000000 570.000000 0 255 0
1423.000000 2254.000000 570.000000 0 255 0
1423.000000 2243.000000 571.000000 0 255 0
1437.000000 2236.000000 571.000000 0 255 0
1453.000000 2354.000000 552.000000 0 255 0
1365.000000 2319.000000 553.000000 0 255 0
1368.000000 2310.000000 553.000000 0 255 0
1386.000000 2304.000000 553.000000 0 255 0
1349.000000 2274.000000 553.000000 0 255 0
1405.000000 2280.000000 586.000000 0 255 0
1416.000000 2272.000000 586.000000 0 255 0
1395.000000 2254.000000 553.000000 0 255 0
1435.000000 2255.000000 586.000000 0 255 0
1416.000000 2249.000000 553.000000 0 255 0
1455.000000 2249.000000 586.000000 0 255 0
1369.000000 2318.000000 555.000000 0 255 0
1376.000000 2309.000000 554.000000 0 255 0
1412.000000 2309.000000 554.000000 0 255 0
1374.000000 2289.000000 554.000000 0 255 0
1361.000000 2275.000000 554.000000 0 255 0
1416.000000 2268.000000 554.000000 0 255 0
1407.000000 2256.000000 554.000000 0 255 0
1415.000000 2247.000000 554.000000 0 255 0
1365.000000 2371.000000 585.000000 0 255 0
1435.000000 2347.000000 552.000000 0 255 0
1372.000000 2320.000000 552.000000 0 255 0
1380.000000 2311.000000 552.000000 0 255 0
1435.000000 2315.000000 552.000000 0 255 0
1362.000000 2276.000000 553.000000 0 255 0
1404.000000 2277.000000 585.000000 0 255 0
1420.000000 2271.000000 585.000000 0 255 0
1401.000000 2254.000000 553.000000 0 255 0
1434.000000 2253.000000 586.000000 0 255 0
1417.000000 2247.000000 553.000000 0 255 0
1436.000000 2243.000000 586.000000 0 255 0
1417.000000 2237.000000 553.000000 0 255 0
1383.000000 2361.000000 576.000000 0 255 0
1375.000000 2348.000000 576.000000 0 255 0
1417.000000 2349.000000 576.000000 0 255 0
1474.000000 2354.000000 577.000000 0 255 0
1399.000000 2319.000000 545.000000 0 255 0
1375.000000 2302.000000 545.000000 0 255 0
1444.000000 2302.000000 577.000000 0 255 0
1399.000000 2280.000000 577.000000 0 255 0
1414.000000 2273.000000 577.000000 0 255 0
1422.000000 2264.000000 577.000000 0 255 0
1368.000000 2248.000000 546.000000 0 255 0
1433.000000 2256.000000 578.000000 0 255 0
1382.000000 2241.000000 546.000000 0 255 0
1444.000000 2248.000000 578.000000 0 255 0
1427.000000 2240.000000 546.000000 0 255 0
1422.000000 2233.000000 578.000000 0 255 0
1379.000000 2310.000000 557.000000 0 255 0
1449.000000 2317.000000 557.000000 0 255 0
1400.000000 2285.000000 590.000000 0 255 0
1398.000000 2274.000000 591.000000 0 255 0
1404.000000 2273.000000 558.000000 0 255 0
1445.000000 2274.000000 592.000000 0 255 0
1398.000000 2261.000000 558.000000 0 255 0
1430.000000 2260.000000 592.000000 0 255 0
1412.000000 2253.000000 559.000000 0 255 0
1411.000000 2242.000000 559.000000 0 255 0
1368.000000 2344.000000 561.000000 0 255 0
1352.000000 2329.000000 561.000000 0 255 0
1364.000000 2321.000000 562.000000 0 255 0
1372.000000 2312.000000 562.000000 0 255 0
1477.000000 2328.000000 562.000000 0 255 0
1404.000000 2298.000000 563.000000 0 255 0
1377.000000 2280.000000 563.000000 0 255 0
1385.000000 2271.000000 564.000000 0 255 0
1388.000000 2261.000000 564.000000 0 255 0
1405.000000 2254.000000 564.000000 0 255 0
1413.000000 2245.000000 565.000000 0 255 0
1423.000000 2237.000000 565.000000 0 255 0
1452.000000 2232.000000 565.000000 0 255 0
1396.000000 2240.000000 553.000000 0 255 0
1422.000000 2253.000000 585.000000 0 255 0
1417.000000 2263.000000 585.000000 0 255 0
1351.000000 2251.000000 554.000000 0 255 0
1429.000000 2276.000000 585.000000 0 255 0
1379.000000 2268.000000 554.000000 0 255 0
1404.000000 2281.000000 585.000000 0 255 0
1388.000000 2288.000000 585.000000 0 255 0
1461.000000 2320.000000 553.000000 0 255 0
1370.000000 2307.000000 554.000000 0 255 0
1371.000000 2318.000000 554.000000 0 255 0
1492.000000 2361.000000 554.000000 0 255 0
1481.000000 2377.000000 587.000000 0 255 0
1417.000000 2371.000000 587.000000 0 255 0
1370.000000 2349.000000 564.000000 0 255 0
1368.000000 2338.000000 564.000000 0 255 0
1375.000000 2329.000000 564.000000 0 255 0
1374.000000 2318.000000 565.000000 0 255 0
1510.000000 2342.000000 565.000000 0 255 0
1382.000000 2288.000000 565.000000 0 255 0
1378.000000 2276.000000 565.000000 0 255 0
1401.000000 2271.000000 565.000000 0 255 0
1405.000000 2261.000000 565.000000 0 255 0
1420.000000 2253.000000 566.000000 0 255 0
1430.000000 2245.000000 566.000000 0 255 0
1432.000000 2235.000000 566.000000 0 255 0
1425.000000 2236.000000 560.000000 0 255 0
1401.000000 2237.000000 592.000000 0 255 0
1407.000000 2243.000000 560.000000 0 255 0
1410.000000 2250.000000 593.000000 0 255 0
1396.000000 2252.000000 561.000000 0 255 0
1384.000000 2260.000000 561.000000 0 255 0
1427.000000 2276.000000 594.000000 0 255 0
1387.000000 2271.000000 561.000000 0 255 0
1396.000000 2284.000000 562.000000 0 255 0
1411.000000 2294.000000 594.000000 0 255 0
1399.000000 2307.000000 563.000000 0 255 0
1375.000000 2312.000000 563.000000 0 255 0
1365.000000 2320.000000 563.000000 0 255 0
1351.000000 2327.000000 564.000000 0 255 0
1351.000000 2338.000000 564.000000 0 255 0
1414.000000 2367.000000 565.000000 0 255 0
1437.000000 2233.000000 567.000000 0 255 0
1423.000000 2240.000000 568.000000 0 255 0
1410.000000 2248.000000 568.000000 0 255 0
1405.000000 2258.000000 568.000000 0 255 0
1397.000000 2267.000000 569.000000 0 255 0
1382.000000 2274.000000 569.000000 0 255 0
1376.000000 2283.000000 569.000000 0 255 0
1402.000000 2301.000000 570.000000 0 255 0
1476.000000 2333.000000 536.000000 0 255 0
1391.000000 2320.000000 570.000000 0 255 0
1377.000000 2327.000000 570.000000 0 255 0
1368.000000 2335.000000 571.000000 0 255 0
1349.000000 2341.000000 571.000000 0 255 0
1419.000000 2372.000000 571.000000 0 255 0
1459.000000 2246.000000 565.000000 0 255 0
1412.000000 2246.000000 565.000000 0 255 0
1406.000000 2252.000000 597.000000 0 255 0
1408.000000 2256.000000 565.000000 0 255 0
1447.000000 2272.000000 598.000000 0 255 0
1398.000000 2264.000000 565.000000 0 255 0
1392.000000 2273.000000 565.000000 0 255 0
1400.000000 2282.000000 597.000000 0 255 0
1397.000000 2285.000000 565.000000 0 255 0
1453.000000 2309.000000 565.000000 0 255 0
1452.000000 2320.000000 565.000000 0 255 0
1471.000000 2326.000000 530.000000 0 255 0
1400.000000 2317.000000 565.000000 0 255 0
1380.000000 2322.000000 565.000000 0 255 0
1372.000000 2331.000000 565.000000 0 255 0
1366.000000 2340.000000 565.000000 0 255 0
1404.000000 2361.000000 565.000000 0 255 0
1433.000000 2230.000000 578.000000 0 255 0
1451.000000 2245.000000 578.000000 0 255 0
1423.000000 2250.000000 578.000000 0 255 0
1409.000000 2258.000000 579.000000 0 255 0
1400.000000 2266.000000 579.000000 0 255 0
1384.000000 2274.000000 579.000000 0 255 0
1374.000000 2282.000000 580.000000 0 255 0
1433.000000 2342.000000 582.000000 0 255 0
1409.000000 2347.000000 582.000000 0 255 0
1371.000000 2347.000000 582.000000 0 255 0
1363.000000 2356.000000 583.000000 0 255 0
1431.000000 2387.000000 584.000000 0 255 0
1489.000000 2330.000000 528.000000 0 255 0
1477.000000 2328.000000 529.000000 0 255 0
1447.000000 2235.000000 572.000000 0 255 0
1425.000000 2241.000000 572.000000 0 255 0
1419.000000 2250.000000 572.000000 0 255 0
1411.000000 2259.000000 572.000000 0 255 0
1397.000000 2266.000000 572.000000 0 255 0
1394.000000 2276.000000 572.000000 0 255 0
1381.000000 2283.000000 572.000000 0 255 0
1398.000000 2297.000000 572.000000 0 255 0
1459.000000 2325.000000 538.000000 0 255 0
1476.000000 2339.000000 572.000000 0 255 0
1377.000000 2323.000000 572.000000 0 255 0
1378.000000 2334.000000 572.000000 0 255 0
1370.000000 2343.000000 572.000000 0 255 0
1362.000000 2351.000000 572.000000 0 255 0
1439.000000 2239.000000 583.000000 0 255 0
1441.000000 2251.000000 583.000000 0 255 0
1441.000000 2254.000000 551.000000 0 255 0
1414.000000 2255.000000 583.000000 0 255 0
1397.000000 2255.000000 552.000000 0 255 0
1421.000000 2268.000000 584.000000 0 255 0
1357.000000 2256.000000 552.000000 0 255 0
1411.000000 2276.000000 584.000000 0 255 0
1391.000000 2282.000000 584.000000 0 255 0
1455.000000 2308.000000 584.000000 0 255 0
1396.000000 2308.000000 552.000000 0 255 0
1367.000000 2311.000000 553.000000 0 255 0
1424.000000 2336.000000 552.000000 0 255 0
1516.000000 2369.000000 586.000000 0 255 0
1477.000000 2370.000000 585.000000 0 255 0
1398.000000 2359.000000 585.000000 0 255 0
1392.000000 2368.000000 585.000000 0 255 0
1361.000000 2224.000000 555.000000 0 255 0
1435.000000 2258.000000 587.000000 0 255 0
1424.000000 2266.000000 587.000000 0 255 0
1434.000000 2279.000000 587.000000 0 255 0
1389.000000 2272.000000 555.000000 0 255 0
1405.000000 2283.000000 587.000000 0 255 0
1431.000000 2300.000000 587.000000 0 255 0
1433.000000 2315.000000 555.000000 0 255 0
1375.000000 2310.000000 556.000000 0 255 0
1371.000000 2320.000000 556.000000 0 255 0
1473.000000 2358.000000 555.000000 0 255 0
1516.000000 2389.000000 589.000000 0 255 0
1476.000000 2389.000000 589.000000 0 255 0
1436.000000 2257.000000 587.000000 0 255 0
1424.000000 2265.000000 588.000000 0 255 0
1354.000000 2261.000000 555.000000 0 255 0
1402.000000 2281.000000 588.000000 0 255 0
1354.000000 2271.000000 555.000000 0 255 0
1442.000000 2302.000000 589.000000 0 255 0
1447.000000 2317.000000 555.000000 0 255 0
1382.000000 2311.000000 556.000000 0 255 0
1360.000000 2316.000000 556.000000 0 255 0
1404.000000 2339.000000 556.000000 0 255 0
1365.000000 2344.000000 566.000000 0 255 0
1361.000000 2332.000000 566.000000 0 255 0
1371.000000 2324.000000 566.000000 0 255 0
1390.000000 2319.000000 567.000000 0 255 0
1444.000000 2310.000000 567.000000 0 255 0
1381.000000 2283.000000 568.000000 0 255 0
1386.000000 2274.000000 568.000000 0 255 0
1397.000000 2266.000000 568.000000 0 255 0
1417.000000 2259.000000 569.000000 0 255 0
1432.000000 2252.000000 569.000000 0 255 0
1434.000000 2241.000000 569.000000 0 255 0
1453.000000 2234.000000 570.000000 0 255 0
1433.000000 2231.000000 580.000000 0 255 0
1428.000000 2252.000000 580.000000 0 255 0
1384.000000 2244.000000 547.000000 0 255 0
1419.000000 2261.000000 580.000000 0 255 0
1407.000000 2269.000000 581.000000 0 255 0
1395.000000 2277.000000 581.000000 0 255 0
1378.000000 2284.000000 581.000000 0 255 0
1377.000000 2307.000000 549.000000 0 255 0
1385.000000 2320.000000 549.000000 0 255 0
1477.000000 2354.000000 583.000000 0 255 0
1434.000000 2354.000000 583.000000 0 255 0
1380.000000 2350.000000 583.000000 0 255 0
1375.000000 2360.000000 584.000000 0 255 0
1416.000000 2253.000000 596.000000 0 255 0
1417.000000 2264.000000 596.000000 0 255 0
1389.000000 2280.000000 597.000000 0 255 0
1446.000000 2231.000000 573.000000 0 255 0
1436.000000 2240.000000 573.000000 0 255 0
1418.000000 2247.000000 573.000000 0 255 0
1403.000000 2254.000000 574.000000 0 255 0
1395.000000 2263.000000 574.000000 0 255 0
1384.000000 2272.000000 574.000000 0 255 0
1384.000000 2283.000000 575.000000 0 255 0
1396.000000 2296.000000 575.000000 0 255 0
1375.000000 2296.000000 543.000000 0 255 0
1387.000000 2310.000000 544.000000 0 255 0
1476.000000 2344.000000 543.000000 0 255 0
1398.000000 2330.000000 576.000000 0 255 0
1366.000000 2332.000000 576.000000 0 255 0
1359.000000 2342.000000 577.000000 0 255 0
1346.000000 2349.000000 577.000000 0 255 0
1451.000000 2374.000000 560.000000 0 255 0
1359.000000 2337.000000 561.000000 0 255 0
1360.000000 2326.000000 561.000000 0 255 0
1368.000000 2318.000000 561.000000 0 255 0
1397.000000 2314.000000 562.000000 0 255 0
1451.000000 2317.000000 562.000000 0 255 0
1409.000000 2295.000000 562.000000 0 255 0
1402.000000 2287.000000 596.000000 0 255 0
1373.000000 2276.000000 563.000000 0 255 0
1386.000000 2268.000000 563.000000 0 255 0
1392.000000 2258.000000 563.000000 0 255 0
1406.000000 2251.000000 564.000000 0 255 0
1409.000000 2241.000000 564.000000 0 255 0
1421.000000 2233.000000 564.000000 0 255 0
1400.000000 2217.000000 565.000000 0 255 0
1448.000000 2249.000000 550.000000 0 255 0
1418.000000 2250.000000 582.000000 0 255 0
1348.000000 2237.000000 551.000000 0 255 0
1414.000000 2259.000000 582.000000 0 255 0
1370.000000 2253.000000 551.000000 0 255 0
1414.000000 2270.000000 582.000000 0 255 0
1395.000000 2269.000000 551.000000 0 255 0
1396.000000 2276.000000 582.000000 0 255 0
1381.000000 2283.000000 583.000000 0 255 0
1372.000000 2306.000000 552.000000 0 255 0
1375.000000 2317.000000 552.000000 0 255 0
1472.000000 2362.000000 584.000000 0 255 0
1400.000000 2346.000000 552.000000 0 255 0
1414.000000 2357.000000 584.000000 0 255 0
1375.000000 2357.000000 584.000000 0 255 0
1436.000000 2385.000000 585.000000 0 255 0
1410.000000 2244.000000 595.000000 0 255 0
1412.000000 2245.000000 562.000000 0 255 0
1430.000000 2259.000000 596.000000 0 255 0
1401.000000 2253.000000 562.000000 0 255 0
1418.000000 2267.000000 595.000000 0 255 0
1394.000000 2262.000000 562.000000 0 255 0
1400.000000 2273.000000 595.000000 0 255 0
1410.000000 2276.000000 562.000000 0 255 0
1432.000000 2313.000000 562.000000 0 255 0
1457.000000 2323.000000 528.000000 0 255 0
1386.000000 2312.000000 562.000000 0 255 0
1371.000000 2318.000000 562.000000 0 255 0
1361.000000 2326.000000 562.000000 0 255 0
1385.000000 2343.000000 562.000000 0 255 0
1453.000000 2372.000000 562.000000 0 255 0
1413.000000 2232.000000 585.000000 0 255 0
1394.000000 2240.000000 552.000000 0 255 0
1424.000000 2256.000000 586.000000 0 255 0
1421.000000 2265.000000 586.000000 0 255 0
1391.000000 2260.000000 552.000000 0 255 0
1424.000000 2277.000000 586.000000 0 255 0
1345.000000 2259.000000 553.000000 0 255 0
1400.000000 2281.000000 586.000000 0 255 0
1398.000000 2291.000000 586.000000 0 255 0
1518.000000 2333.000000 552.000000 0 255 0
1372.000000 2306.000000 553.000000 0 255 0
1365.000000 2315.000000 553.000000 0 255 0
1492.000000 2360.000000 552.000000 0 255 0
1505.000000 2373.000000 587.000000 0 255 0
1440.000000 2366.000000 586.000000 0 255 0
1389.000000 2362.000000 586.000000 0 255 0
1457.000000 2392.000000 586.000000 0 255 0
1491.000000 2397.000000 586.000000 0 255 0
1497.000000 2387.000000 586.000000 0 255 0
1390.000000 2330.000000 552.000000 0 255 0
1367.000000 2313.000000 553.000000 0 255 0
1379.000000 2305.000000 553.000000 0 255 0
1494.000000 2324.000000 553.000000 0 255 0
1418.000000 2297.000000 587.000000 0 255 0
1370.000000 2281.000000 554.000000 0 255 0
1431.000000 2290.000000 588.000000 0 255 0
1372.000000 2271.000000 554.000000 0 255 0
1407.000000 2273.000000 588.000000 0 255 0
1408.000000 2258.000000 555.000000 0 255 0
1430.000000 2256.000000 589.000000 0 255 0
1404.000000 2246.000000 555.000000 0 255 0
1414.000000 2242.000000 589.000000 0 255 0
1419.000000 2238.000000 556.000000 0 255 0
1435.000000 2231.000000 556.000000 0 255 0
1415.000000 2237.000000 588.000000 0 255 0
1433.000000 2255.000000 556.000000 0 255 0
1443.000000 2265.000000 589.000000 0 255 0
1390.000000 2278.000000 557.000000 0 255 0
1435.000000 2296.000000 590.000000 0 255 0
1448.000000 2303.000000 557.000000 0 255 0
1361.000000 2288.000000 589.000000 0 255 0
1492.000000 2325.000000 557.000000 0 255 0
1388.000000 2310.000000 558.000000 0 255 0
1366.000000 2314.000000 558.000000 0 255 0
1375.000000 2328.000000 559.000000 0 255 0
1456.000000 2361.000000 558.000000 0 255 0
1419.000000 2243.000000 574.000000 0 255 0
1410.000000 2252.000000 574.000000 0 255 0
1395.000000 2260.000000 574.000000 0 255 0
1387.000000 2269.000000 575.000000 0 255 0
1378.000000 2278.000000 575.000000 0 255 0
1367.000000 2286.000000 576.000000 0 255 0
1404.000000 2329.000000 577.000000 0 255 0
1368.000000 2330.000000 577.000000 0 255 0
1360.000000 2339.000000 578.000000 0 255 0
1352.000000 2348.000000 578.000000 0 255 0
1394.000000 2371.000000 579.000000 0 255 0
1430.000000 2367.000000 559.000000 0 255 0
1362.000000 2338.000000 559.000000 0 255 0
1361.000000 2327.000000 559.000000 0 255 0
1367.000000 2318.000000 559.000000 0 255 0
1383.000000 2312.000000 559.000000 0 255 0
1409.000000 2309.000000 559.000000 0 255 0
1470.000000 2314.000000 559.000000 0 255 0
1406.000000 2287.000000 559.000000 0 255 0
1397.000000 2278.000000 593.000000 0 255 0
1398.000000 2275.000000 559.000000 0 255 0
1398.000000 2268.000000 593.000000 0 255 0
1384.000000 2261.000000 559.000000 0 255 0
1421.000000 2263.000000 593.000000 0 255 0
1401.000000 2255.000000 559.000000 0 255 0
1411.000000 2250.000000 593.000000 0 255 0
1406.000000 2246.000000 559.000000 0 255 0
1424.000000 2229.000000 559.000000 0 255 0
1360.000000 2344.000000 567.000000 0 255 0
1372.000000 2337.000000 567.000000 0 255 0
1372.000000 2326.000000 568.000000 0 255 0
1411.000000 2326.000000 568.000000 0 255 0
1377.000000 2284.000000 569.000000 0 255 0
1390.000000 2277.000000 569.000000 0 255 0
1402.000000 2269.000000 569.000000 0 255 0
1418.000000 2262.000000 569.000000 0 255 0
1429.000000 2253.000000 570.000000 0 255 0
1426.000000 2242.000000 570.000000 0 255 0
1449.000000 2236.000000 570.000000 0 255 0
1424.000000 2232.000000 570.000000 0 255 0
1423.000000 2242.000000 570.000000 0 255 0
1412.000000 2250.000000 570.000000 0 255 0
1404.000000 2259.000000 570.000000 0 255 0
1394.000000 2266.000000 570.000000 0 255 0
1385.000000 2275.000000 570.000000 0 255 0
1371.000000 2281.000000 570.000000 0 255 0
1389.000000 2296.000000 570.000000 0 255 0
1426.000000 2320.000000 537.000000 0 255 0
1425.000000 2327.000000 570.000000 0 255 0
1371.000000 2322.000000 570.000000 0 255 0
1366.000000 2331.000000 570.000000 0 255 0
1363.000000 2341.000000 570.000000 0 255 0
1356.000000 2349.000000 570.000000 0 255 0
1437.000000 2319.000000 533.000000 0 255 0
1401.000000 2230.000000 559.000000 0 255 0
1436.000000 2244.000000 591.000000 0 255 0
1428.000000 2246.000000 559.000000 0 255 0
1415.000000 2254.000000 560.000000 0 255 0
1399.000000 2261.000000 560.000000 0 255 0
1433.000000 2280.000000 560.000000 0 255 0
1455.000000 2319.000000 561.000000 0 255 0
1381.000000 2311.000000 561.000000 0 255 0
1369.000000 2318.000000 561.000000 0 255 0
1370.000000 2329.000000 562.000000 0 255 0
1398.000000 2348.000000 562.000000 0 255 0
1492.000000 2385.000000 562.000000 0 255 0
1441.000000 2243.000000 586.000000 0 255 0
1416.000000 2241.000000 554.000000 0 255 0
1456.000000 2257.000000 586.000000 0 255 0
1427.000000 2261.000000 586.000000 0 255 0
1389.000000 2267.000000 555.000000 0 255 0
1438.000000 2285.000000 587.000000 0 255 0
1391.000000 2278.000000 555.000000 0 255 0
1389.000000 2284.000000 587.000000 0 255 0
1452.000000 2304.000000 555.000000 0 255 0
1382.000000 2307.000000 556.000000 0 255 0
1368.000000 2315.000000 556.000000 0 255 0
1406.000000 2336.000000 556.000000 0 255 0
1509.000000 2395.000000 590.000000 0 255 0
1422.000000 2329.000000 543.000000 0 255 0
1403.000000 2314.000000 543.000000 0 255 0
1475.000000 2322.000000 543.000000 0 255 0
1346.000000 2239.000000 544.000000 0 255 0
1396.000000 2240.000000 544.000000 0 255 0
1348.000000 2340.000000 564.000000 0 255 0
1357.000000 2332.000000 565.000000 0 255 0
1367.000000 2324.000000 565.000000 0 255 0
1380.000000 2316.000000 565.000000 0 255 0
1406.000000 2301.000000 565.000000 0 255 0
1380.000000 2283.000000 566.000000 0 255 0
1383.000000 2273.000000 566.000000 0 255 0
1392.000000 2264.000000 567.000000 0 255 0
1407.000000 2257.000000 567.000000 0 255 0
1420.000000 2249.000000 567.000000 0 255 0
1424.000000 2239.000000 568.000000 0 255 0
1442.000000 2232.000000 568.000000 0 255 0
1449.000000 2242.000000 583.000000 0 255 0
1444.000000 2244.000000 551.000000 0 255 0
1438.000000 2250.000000 583.000000 0 255 0
1392.000000 2243.000000 551.000000 0 255 0
1420.000000 2257.000000 583.000000 0 255 0
1418.000000 2260.000000 551.000000 0 255 0
1416.000000 2266.000000 583.000000 0 255 0
1343.000000 2253.000000 552.000000 0 255 0
1411.000000 2276.000000 583.000000 0 255 0
1385.000000 2281.000000 583.000000 0 255 0
1460.000000 2310.000000 584.000000 0 255 0
1389.000000 2306.000000 552.000000 0 255 0
1369.000000 2311.000000 552.000000 0 255 0
1425.000000 2337.000000 552.000000 0 255 0
1499.000000 2365.000000 585.000000 0 255 0
1462.000000 2366.000000 585.000000 0 255 0
1392.000000 2357.000000 584.000000 0 255 0
1393.000000 2368.000000 585.000000 0 255 0
1439.000000 2371.000000 563.000000 0 255 0
1364.000000 2339.000000 563.000000 0 255 0
1373.000000 2331.000000 563.000000 0 255 0
1371.000000 2320.000000 564.000000 0 255 0
1426.000000 2323.000000 564.000000 0 255 0
1400.000000 2295.000000 564.000000 0 255 0
1377.000000 2278.000000 565.000000 0 255 0
1394.000000 2272.000000 565.000000 0 255 0
1403.000000 2263.000000 565.000000 0 255 0
1411.000000 2254.000000 565.000000 0 255 0
1427.000000 2247.000000 565.000000 0 255 0
1428.000000 2236.000000 565.000000 0 255 0
1442.000000 2228.000000 566.000000 0 255 0
1418.000000 2251.000000 593.000000 0 255 0
1402.000000 2270.000000 594.000000 0 255 0
1395.000000 2279.000000 594.000000 0 255 0
1399.000000 2291.000000 595.000000 0 255 0
1449.000000 2242.000000 556.000000 0 255 0
1435.000000 2246.000000 588.000000 0 255 0
1445.000000 2252.000000 556.000000 0 255 0
1454.000000 2261.000000 589.000000 0 255 0
1448.000000 2271.000000 589.000000 0 255 0
1423.000000 2287.000000 589.000000 0 255 0
1358.000000 2275.000000 558.000000 0 255 0
1417.000000 2311.000000 558.000000 0 255 0
1380.000000 2312.000000 558.000000 0 255 0
1365.000000 2319.000000 558.000000 0 255 0
1411.000000 2342.000000 558.000000 0 255 0
1438.000000 2236.000000 569.000000 0 255 0
1421.000000 2243.000000 569.000000 0 255 0
1412.000000 2251.000000 569.000000 0 255 0
1399.000000 2258.000000 569.000000 0 255 0
1388.000000 2266.000000 569.000000 0 255 0
1384.000000 2275.000000 569.000000 0 255 0
1376.000000 2284.000000 569.000000 0 255 0
1386.000000 2296.000000 569.000000 0 255 0
1403.000000 2321.000000 569.000000 0 255 0
1368.000000 2322.000000 569.000000 0 255 0
1366.000000 2332.000000 569.000000 0 255 0
1354.000000 2339.000000 569.000000 0 255 0
1346.000000 2347.000000 569.000000 0 255 0
1443.000000 2361.000000 556.000000 0 255 0
1364.000000 2328.000000 556.000000 0 255 0
1361.000000 2316.000000 557.000000 0 255 0
1374.000000 2309.000000 557.000000 0 255 0
1405.000000 2306.000000 558.000000 0 255 0
1411.000000 2285.000000 558.000000 0 255 0
1383.000000 2267.000000 559.000000 0 255 0
1393.000000 2259.000000 559.000000 0 255 0
1400.000000 2249.000000 560.000000 0 255 0
1417.000000 2242.000000 560.000000 0 255 0
1437.000000 2230.000000 578.000000 0 255 0
1423.000000 2249.000000 579.000000 0 255 0
1355.000000 2238.000000 547.000000 0 255 0
1415.000000 2258.000000 579.000000 0 255 0
1404.000000 2266.000000 579.000000 0 255 0
1392.000000 2274.000000 580.000000 0 255 0
1381.000000 2283.000000 580.000000 0 255 0
1375.000000 2308.000000 549.000000 0 255 0
1373.000000 2318.000000 549.000000 0 255 0
1466.000000 2349.000000 582.000000 0 255 0
1427.000000 2350.000000 582.000000 0 255 0
1383.000000 2349.000000 582.000000 0 255 0
1365.000000 2356.000000 583.000000 0 255 0
1457.000000 2393.000000 584.000000 0 255 0
1418.000000 2368.000000 566.000000 0 255 0
1362.000000 2342.000000 566.000000 0 255 0
1368.000000 2333.000000 566.000000 0 255 0
1369.000000 2323.000000 566.000000 0 255 0
1415.000000 2325.000000 566.000000 0 255 0
1439.000000 2310.000000 566.000000 0 255 0
1378.000000 2284.000000 566.000000 0 255 0
1385.000000 2275.000000 566.000000 0 255 0
1404.000000 2269.000000 567.000000 0 255 0
1409.000000 2260.000000 567.000000 0 255 0
1419.000000 2252.000000 567.000000 0 255 0
1419.000000 2241.000000 567.000000 0 255 0
1429.000000 2233.000000 567.000000 0 255 0
1375.000000 2359.000000 577.000000 0 255 0
1386.000000 2351.000000 578.000000 0 255 0
1459.000000 2361.000000 578.000000 0 255 0
1517.000000 2365.000000 579.000000 0 255 0
1498.000000 2356.000000 545.000000 0 255 0
1381.000000 2314.000000 547.000000 0 255 0
1385.000000 2304.000000 547.000000 0 255 0
1451.000000 2303.000000 579.000000 0 255 0
1404.000000 2281.000000 579.000000 0 255 0
1408.000000 2271.000000 579.000000 0 255 0
1424.000000 2264.000000 579.000000 0 255 0
1378.000000 2250.000000 548.000000 0 255 0
1439.000000 2257.000000 580.000000 0 255 0
1385.000000 2230.000000 548.000000 0 255 0
1476.000000 2394.000000 582.000000 0 255 0
1440.000000 2372.000000 582.000000 0 255 0
1517.000000 2382.000000 583.000000 0 255 0
1380.000000 2320.000000 550.000000 0 255 0
1370.000000 2307.000000 550.000000 0 255 0
1410.000000 2370.000000 574.000000 0 255 0
1374.000000 2348.000000 573.000000 0 255 0
1383.000000 2340.000000 574.000000 0 255 0
1398.000000 2334.000000 574.000000 0 255 0
1451.000000 2333.000000 541.000000 0 255 0
1386.000000 2306.000000 542.000000 0 255 0
1426.000000 2298.000000 574.000000 0 255 0
1398.000000 2281.000000 574.000000 0 255 0
1408.000000 2273.000000 574.000000 0 255 0
1419.000000 2265.000000 575.000000 0 255 0
1426.000000 2256.000000 575.000000 0 255 0
1433.000000 2247.000000 575.000000 0 255 0
1446.000000 2239.000000 575.000000 0 255 0
1368.000000 2352.000000 570.000000 0 255 0
1377.000000 2344.000000 570.000000 0 255 0
1371.000000 2331.000000 571.000000 0 255 0
1387.000000 2325.000000 571.000000 0 255 0
1452.000000 2316.000000 539.000000 0 255 0
1464.000000 2312.000000 572.000000 0 255 0
1396.000000 2284.000000 572.000000 0 255 0
1403.000000 2275.000000 572.000000 0 255 0
1412.000000 2266.000000 572.000000 0 255 0
1422.000000 2258.000000 573.000000 0 255 0
1433.000000 2249.000000 573.000000 0 255 0
1434.000000 2239.000000 573.000000 0 255 0
1439.000000 2229.000000 574.000000 0 255 0
1445.000000 2241.000000 584.000000 0 255 0
1438.000000 2251.000000 584.000000 0 255 0
1385.000000 2240.000000 551.000000 0 255 0
1425.000000 2259.000000 584.000000 0 255 0
1371.000000 2248.000000 551.000000 0 255 0
1414.000000 2267.000000 585.000000 0 255 0
1336.000000 2250.000000 552.000000 0 255 0
1406.000000 2276.000000 585.000000 0 255 0
1410.000000 2279.000000 552.000000 0 255 0
1386.000000 2282.000000 585.000000 0 255 0
1383.000000 2305.000000 553.000000 0 255 0
1371.000000 2313.000000 553.000000 0 255 0
1397.000000 2331.000000 553.000000 0 255 0
1511.000000 2383.000000 588.000000 0 255 0
1442.000000 2375.000000 588.000000 0 255 0
1421.000000 2370.000000 568.000000 0 255 0
1362.000000 2343.000000 568.000000 0 255 0
1374.000000 2336.000000 568.000000 0 255 0
1371.000000 2324.000000 568.000000 0 255 0
1431.000000 2330.000000 568.000000 0 255 0
1383.000000 2286.000000 568.000000 0 255 0
1382.000000 2275.000000 568.000000 0 255 0
1402.000000 2270.000000 568.000000 0 255 0
1412.000000 2261.000000 569.000000 0 255 0
1418.000000 2252.000000 569.000000 0 255 0
1419.000000 2242.000000 569.000000 0 255 0
1423.000000 2232.000000 569.000000 0 255 0
1398.000000 2328.000000 547.000000 0 255 0
1371.000000 2311.000000 548.000000 0 255 0
1392.000000 2306.000000 547.000000 0 255 0
1361.000000 2258.000000 548.000000 0 255 0
1403.000000 2257.000000 548.000000 0 255 0
1433.000000 2243.000000 547.000000 0 255 0
1481.000000 2349.000000 543.000000 0 255 0
1391.000000 2314.000000 545.000000 0 255 0
1398.000000 2305.000000 545.000000 0 255 0
1349.000000 2249.000000 547.000000 0 255 0
1392.000000 2248.000000 547.000000 0 255 0
1417.000000 2243.000000 548.000000 0 255 0
1421.000000 2234.000000 583.000000 0 255 0
1414.000000 2247.000000 552.000000 0 255 0
1416.000000 2255.000000 583.000000 0 255 0
1384.000000 2251.000000 552.000000 0 255 0
1416.000000 2265.000000 584.000000 0 255 0
1362.000000 2256.000000 552.000000 0 255 0
1409.000000 2274.000000 584.000000 0 255 0
1375.000000 2269.000000 552.000000 0 255 0
1391.000000 2280.000000 584.000000 0 255 0
1427.000000 2300.000000 584.000000 0 255 0
1407.000000 2309.000000 552.000000 0 255 0
1366.000000 2309.000000 553.000000 0 255 0
1404.000000 2330.000000 553.000000 0 255 0
1490.000000 2372.000000 586.000000 0 255 0
1400.000000 2358.000000 585.000000 0 255 0
1391.000000 2366.000000 585.000000 0 255 0
1429.000000 2231.000000 574.000000 0 255 0
1423.000000 2241.000000 574.000000 0 255 0
1417.000000 2251.000000 574.000000 0 255 0
1411.000000 2260.000000 575.000000 0 255 0
1393.000000 2267.000000 575.000000 0 255 0
1386.000000 2276.000000 575.000000 0 255 0
1374.000000 2284.000000 575.000000 0 255 0
1483.000000 2322.000000 576.000000 0 255 0
1454.000000 2328.000000 542.000000 0 255 0
1472.000000 2342.000000 577.000000 0 255 0
1381.000000 2329.000000 577.000000 0 255 0
1371.000000 2337.000000 577.000000 0 255 0
1366.000000 2347.000000 577.000000 0 255 0
1383.000000 2363.000000 578.000000 0 255 0
1456.000000 2252.000000 593.000000 0 255 0
1417.000000 2247.000000 560.000000 0 255 0
1407.000000 2255.000000 560.000000 0 255 0
1410.000000 2274.000000 592.000000 0 255 0
1435.000000 2316.000000 561.000000 0 255 0
1463.000000 2324.000000 525.000000 0 255 0
1373.000000 2310.000000 561.000000 0 255 0
1372.000000 2320.000000 561.000000 0 255 0
1377.000000 2332.000000 561.000000 0 255 0
1435.000000 2359.000000 561.000000 0 255 0
1376.000000 2357.000000 574.000000 0 255 0
1376.000000 2346.000000 574.000000 0 255 0
1378.000000 2336.000000 575.000000 0 255 0
1427.000000 2338.000000 575.000000 0 255 0
1437.000000 2327.000000 542.000000 0 255 0
1434.000000 2315.000000 543.000000 0 255 0
1396.000000 2286.000000 577.000000 0 255 0
1404.000000 2277.000000 577.000000 0 255 0
1409.000000 2267.000000 577.000000 0 255 0
1419.000000 2259.000000 578.000000 0 255 0
1363.000000 2243.000000 545.000000 0 255 0
1433.000000 2251.000000 578.000000 0 255 0
1381.000000 2237.000000 545.000000 0 255 0
1437.000000 2241.000000 578.000000 0 255 0
1499.000000 2399.000000 584.000000 0 255 0
1489.000000 2385.000000 584.000000 0 255 0
1489.000000 2361.000000 550.000000 0 255 0
1370.000000 2319.000000 551.000000 0 255 0
